ply
format ascii 1.0
comment Written with hapPLY (https://github.com/nmwsharp/happly)
element vertex 894
property float x
property float y
property float z
end_header
0.322528392 0.00153723627 0.714731574
0.614262521 0.00260174507 0.724601924
0.317666113 0.00629964191 0.716363966
0.466774732 0.0128299538 0.776839197
0.612641811 0.00770967919 0.729523122
0.205834702 0.0107086934 0.714706302
0.351701796 0.00992038287 0.707304716
0.497568846 0.0162049811 0.765928984
0.643435955 0.01176026 0.724575341
0.200972483 0.0148591138 0.710582495
0.346839577 0.0142490622 0.704826236
0.492706656 0.0210140478 0.768250585
0.638573766 0.0164273418 0.725384414
0.183144286 0.0165894106 0.683434308
0.329011381 0.019360885 0.709748149
0.47487843 0.0262380522 0.774463177
0.62074554 0.0213524774 0.728660285
0.769854069 0.00940109417 0.615184128
0.239870384 0.0262736939 0.731936157
0.385737419 0.0283832606 0.751877785
0.531604528 0.0287158471 0.754990935
0.677471638 0.0251547378 0.721246958
0.823338687 0.0103469668 0.579822004
0.273906022 0.0302497204 0.726166904
0.419773102 0.0349323824 0.770543575
0.565640152 0.0321207047 0.744080007
0.711507261 0.0290516689 0.714656413
0.145867139 0.0105012543 0.491025239
0.291734219 0.0338925086 0.717110157
0.437601298 0.0400636457 0.775978863
0.583468378 0.0360189155 0.737663865
0.729335427 0.0329570062 0.70806706
0.150729358 0.0153958863 0.492671639
0.296596438 0.038138859 0.713809669
0.442463547 0.0445349626 0.775186718
0.588330567 0.0403365791 0.735183418
0.734197736 0.037208546 0.704766572
0.14262566 0.0192805007 0.484453827
0.288492739 0.0428085476 0.714618802
0.434359819 0.0481907204 0.766610324
0.580226898 0.0449933261 0.73599124
0.726093948 0.0423884504 0.710508585
0.871961057 0.0282717608 0.572409391
0.273906022 0.0475612208 0.716250539
0.419773132 0.0518542565 0.758033991
0.565640152 0.0498166643 0.738443077
0.711507261 0.0473946147 0.714606464
0.85737431 0.0362873301 0.605285227
0.256077796 0.0522289574 0.717059612
0.401944906 0.0552020669 0.746343851
0.547811985 0.0547171459 0.741673529
0.693679035 0.0520629957 0.715416193
0.839546144 0.0421032012 0.616786659
0.228525162 0.0560707748 0.709650218
0.374392241 0.0564831086 0.71375978
0.520259321 0.0600104816 0.748664796
0.66612637 0.0578853674 0.727731228
0.81199348 0.047080189 0.620068371
0.191248015 0.0551676936 0.654577255
0.337115079 0.0591845661 0.694845676
0.482982188 0.0657790452 0.760327697
0.628849268 0.0645764768 0.748651206
0.774716318 0.057052955 0.67347908
0.147487864 0.0419534259 0.474606752
0.293354958 0.0637012571 0.694012642
0.439222068 0.0698600784 0.75564307
0.585089147 0.0690620318 0.747858286
0.730956197 0.0643528104 0.700586379
0.876823246 0.0562075749 0.618412018
0.246353343 0.0685420781 0.696466446
0.392220438 0.070322983 0.714543581
0.538087487 0.0729926601 0.741616488
0.683954597 0.0718607455 0.730155885
0.829821706 0.0616630167 0.626623333
0.196110234 0.0539190583 0.500084579
0.341977328 0.0723352879 0.688238919
0.487844408 0.077561222 0.741602242
0.633711517 0.0795385391 0.761064172
0.779578567 0.0708072633 0.672627866
0.925445676 0.0619612336 0.582247972
0.288492739 0.0761381909 0.680012584
0.434359819 0.0818114579 0.73834455
0.580226898 0.0840986595 0.761049926
0.726094007 0.0784558728 0.703838229
0.871961057 0.0718237981 0.635646939
0.23824963 0.0637563393 0.504195452
0.384116679 0.0810633302 0.683288455
0.529983819 0.0881096795 0.755586684
0.675850868 0.0874827951 0.749358475
0.821717978 0.0759826228 0.63071084
0.188006505 0.0651611984 0.469695181
0.3338736 0.0858263671 0.684920907
0.479740679 0.0901641324 0.730102062
0.625607789 0.0943100154 0.771921217
0.771474838 0.0853531137 0.679991901
0.917341948 0.078569971 0.609345496
0.293354958 0.0892552286 0.672588944
0.439222038 0.0928597674 0.710374355
0.585089147 0.099408865 0.777357161
0.730956197 0.0938782394 0.721052468
0.876823246 0.0860422552 0.638911188
0.265802264 0.0905200616 0.637260616
0.411669344 0.0952681974 0.687363684
0.557536423 0.103110656 0.768779516
0.703403533 0.0998613834 0.735823929
0.849270642 0.0902866796 0.634796441
0.238249615 0.081544362 0.49270314
0.384116679 0.0986341462 0.674212277
0.529983759 0.107128806 0.763315678
0.675850868 0.107051663 0.762537658
0.821717978 0.0958503634 0.644645333
0.967585027 0.0878853649 0.560050249
0.363047004 0.10380888 0.680786073
0.508914113 0.110885702 0.755538702
0.654781163 0.112108402 0.767995119
0.800648212 0.103038684 0.672572076
0.946515322 0.0957181081 0.594540358
0.338735849 0.108672403 0.684075534
0.484602928 0.114350207 0.744648576
0.630469978 0.117384881 0.775786996
0.776337087 0.109363496 0.691468656
0.922204196 0.102759942 0.62082237
0.314424634 0.112768993 0.679149747
0.460291743 0.116441615 0.718583822
0.606158793 0.122651003 0.783578932
0.752025902 0.116441622 0.718583822
0.897893012 0.108942762 0.638072312
0.290113479 0.115572244 0.66025573
0.435980558 0.117478244 0.680796385
0.581847668 0.126709357 0.778915703
0.727714717 0.123119079 0.741552949
0.873581767 0.113437407 0.637250245
0.265802264 0.115652621 0.61177665
0.411669374 0.120515518 0.664365292
0.557536423 0.131145671 0.77814424
0.703403592 0.12824972 0.747788966
0.849270582 0.117476292 0.63149792
0.235008135 0.107209183 0.470428139
0.3808752 0.126212761 0.676693976
0.52674228 0.134993315 0.771146476
0.672609329 0.134846136 0.769589901
0.818476439 0.125910014 0.673407078
0.964343548 0.118414387 0.59205085
0.353322536 0.131751165 0.687381148
0.499189615 0.138630912 0.761814892
0.645056665 0.140094787 0.777380526
0.790923774 0.132354766 0.693955541
0.936790884 0.125640318 0.620810688
0.325769871 0.136305466 0.687385082
0.471636951 0.14081569 0.736701131
0.617504001 0.145405635 0.7859478
0.76337111 0.139011472 0.716974676
0.909238219 0.131569654 0.635603547
0.294975698 0.13883771 0.665195107
0.440842777 0.140934974 0.688210964
0.586709857 0.149550855 0.782063842
0.732576966 0.146088943 0.744710803
0.878444076 0.135916486 0.633136094
0.264181554 0.138324261 0.609294951
0.410048604 0.143771902 0.669307292
0.555915713 0.1547755 0.78985244
0.701782763 0.15133886 0.752501428
0.847649872 0.141159937 0.640533864
0.220421419 0.136955053 0.543517947
0.376012951 0.149894461 0.686574697
0.521880031 0.158496723 0.781300128
0.66774714 0.157786176 0.773518622
0.81361419 0.149894461 0.686574697
0.959481299 0.142680854 0.606824994
0.325769871 0.154744998 0.689868033
0.471636921 0.158968687 0.736736119
0.61750406 0.164345667 0.796090424
0.76337111 0.157560602 0.721112788
0.909238219 0.149558634 0.632310808
0.259319305 0.151768655 0.605995119
0.405186385 0.157895759 0.674247921
0.551053464 0.168494135 0.792206407
0.696920574 0.165555388 0.759528935
0.842787623 0.15656738 0.659446001
0.988654733 0.148225099 0.566523492
0.322528392 0.163852304 0.689876497
0.468395442 0.167897686 0.735108197
0.614262521 0.17341277 0.796880722
0.760129631 0.166867554 0.723594427
0.90599668 0.158335298 0.628196061
0.230145887 0.160417616 0.600230455
0.376012981 0.168625742 0.692347825
0.521880031 0.176670447 0.782883942
0.66774714 0.176670447 0.782883942
0.813614249 0.168405294 0.689880371
0.959481299 0.161076948 0.607632697
0.270664513 0.168651 0.641353965
0.416531593 0.171425715 0.672610998
0.562398672 0.182067573 0.793003857
0.708265781 0.17905879 0.758775651
0.854132831 0.169162527 0.647111475
0.99999994 0.159378409 0.536889136
0.301458687 0.176203027 0.67508167
0.447325766 0.178822145 0.704696596
0.593192875 0.186839655 0.796122134
0.739059925 0.181659117 0.736779571
0.884926975 0.170674339 0.612561107
0.173419803 0.17286168 0.58540839
0.319286883 0.182066247 0.689893365
0.465153962 0.186487004 0.740078747
0.611021042 0.191136599 0.793794751
0.756888092 0.185110018 0.724447012
0.902755201 0.175543085 0.615849257
0.181523517 0.178965405 0.602681696
0.327390611 0.186980352 0.694011331
0.473257691 0.192632213 0.758800268
0.61912477 0.195503533 0.792245328
0.764991879 0.189218923 0.719517946
0.910858929 0.180048734 0.615023315
0.186385781 0.185058117 0.619957507
0.33225286 0.191748574 0.696484625
0.47811991 0.197819218 0.766585708
0.623987019 0.199872389 0.790696561
0.769854069 0.193474993 0.716233671
0.915721178 0.184411123 0.612552047
0.184765011 0.190638021 0.631476462
0.33063212 0.196299642 0.696489751
0.47649917 0.202404007 0.767371476
0.622366309 0.20437482 0.790703058
0.768233359 0.198020205 0.716240168
0.914100468 0.188702852 0.609256744
0.183144286 0.195853621 0.638882637
0.329011321 0.200851321 0.696494281
0.47487843 0.20698747 0.768156528
0.62074554 0.208877295 0.790709555
0.766612589 0.202636093 0.717069983
0.912479699 0.192997202 0.605961382
0.181523517 0.200992659 0.645466745
0.327390611 0.205473676 0.69732219
0.473257691 0.211505502 0.768164277
0.61912477 0.213444531 0.791494012
0.76499182 0.207323313 0.718723178
0.910858929 0.197222799 0.601842105
0.176661283 0.205773205 0.647936106
0.322528362 0.210095406 0.698150694
0.468395472 0.215767369 0.765061557
0.614262521 0.218138859 0.793833017
0.760129631 0.212433815 0.72531569
0.90599668 0.201238379 0.595252812
0.175040573 0.210763812 0.652876139
0.320907623 0.214787811 0.699801922
0.466774702 0.220223814 0.764292061
0.612641811 0.222702861 0.794616818
0.758508921 0.217611164 0.732732236
0.90437597 0.205399171 0.590308309
0.170178294 0.215470448 0.654523492
0.316045403 0.219408214 0.700630426
0.461912453 0.224303529 0.75885731
0.607779562 0.227517799 0.798511147
0.753646612 0.222853944 0.740974009
0.899513721 0.209422469 0.583716333
0.158833086 0.219825074 0.652054071
0.304700196 0.223747924 0.698165596
0.450567275 0.227640957 0.744093001
0.596434355 0.232514873 0.804737389
0.742301404 0.228265941 0.75186801
0.888168514 0.21485132 0.593591869
0.137763426 0.223484084 0.641349435
0.28363049 0.227531418 0.689112127
0.42949757 0.228787169 0.703934789
0.575364649 0.237317443 0.808630407
0.721231759 0.233538553 0.76120615
0.867098808 0.22271648 0.632290721
0.103727773 0.223257154 0.584522188
0.249594837 0.232223809 0.690763354
0.395461917 0.23236315 0.692410648
0.541328967 0.240947917 0.797751963
0.687196076 0.239535272 0.779871941
0.833063126 0.231250674 0.679233372
0.978930295 0.220059097 0.54663825
0.212317705 0.236846775 0.691591263
0.358184785 0.237677246 0.701475203
0.504051864 0.244898006 0.790762007
0.649918914 0.245202065 0.794649243
0.795786023 0.238300309 0.708887815
0.941653132 0.226667881 0.570514441
0.178282008 0.240433827 0.680063188
0.324149132 0.24257192 0.70559901
0.470016211 0.248313919 0.776776969
0.615883291 0.249943733 0.797764957
0.76175034 0.245469183 0.740195394
0.90761745 0.229260445 0.546619475
0.147487879 0.243959919 0.667709887
0.293354958 0.246914223 0.703133523
0.439222038 0.249524906 0.734437883
0.585089087 0.255338192 0.80943042
0.730956197 0.251869202 0.764347136
0.876823246 0.239838049 0.618281007
0.126418203 0.247288942 0.65288198
0.272285283 0.251805604 0.707258642
0.418152332 0.25077939 0.694900095
0.564019442 0.259531409 0.805549741
0.709886491 0.257219553 0.775236607
0.855753601 0.247152165 0.651233971
0.111831494 0.250695735 0.638875544
0.257698566 0.256149232 0.704792559
0.403565645 0.255263001 0.694080651
0.549432755 0.263789445 0.802446961
0.695299804 0.262203068 0.781461537
0.841166854 0.253626704 0.674305618
0.123176716 0.256691843 0.656179249
0.269043773 0.26103738 0.708918273
0.414910883 0.260154426 0.698205829
0.560777962 0.268283427 0.802452803
0.706645012 0.266420901 0.777582765
0.852512121 0.256963521 0.659475803
0.160453871 0.263623476 0.685024619
0.306320935 0.26517874 0.703979552
0.452188015 0.270990074 0.778367221
0.598055124 0.272951186 0.804789901
0.743922174 0.269375175 0.756607711
0.889789224 0.256116807 0.593547165
0.200972468 0.269592971 0.702336729
0.346839577 0.270064294 0.708105981
0.492706627 0.276986867 0.798579216
0.638573706 0.276358634 0.790031374
0.784440815 0.271478891 0.725414217
0.0826580673 0.267165095 0.616617501
0.228525147 0.274947286 0.712233007
0.374392211 0.274209529 0.703166604
0.520259321 0.281597525 0.800139666
0.66612637 0.280522048 0.785375357
0.81199348 0.274410516 0.705639184
0.103727765 0.274348855 0.64876461
0.249594837 0.279894441 0.717186034
0.395461917 0.278291166 0.697401285
0.541329026 0.286429942 0.80480808
0.687196076 0.284523338 0.778389275
0.833063185 0.277355731 0.685860276
0.124797441 0.280845493 0.672673225
0.270664543 0.284172565 0.713894665
0.416531622 0.284571886 0.718841732
0.562398672 0.290589422 0.800152004
0.708265781 0.288645834 0.772957206
0.854132831 0.279714227 0.65865767
0.14262566 0.286597818 0.687517285
0.288492739 0.288718402 0.713901758
0.434359819 0.292391032 0.762087822
0.580226898 0.295086026 0.800157785
0.726093948 0.292555749 0.764418423
0.871961057 0.282024741 0.630625904
0.157212347 0.29200983 0.698240817
0.303079426 0.293065876 0.711434305
0.448946476 0.2984384 0.78384918
0.594813585 0.299636424 0.80094099
0.740680695 0.296586186 0.757434309
0.886547744 0.284286678 0.601763725
0.168557569 0.297218263 0.706492364
0.314424664 0.297283769 0.707316995
0.460291713 0.303430915 0.7908476
0.606158793 0.304131746 0.800946772
0.752025902 0.30068019 0.751227558
0.897892952 0.286765784 0.575370133
0.179902807 0.302289873 0.713095903
0.325769871 0.301570266 0.704023659
0.471636921 0.308307409 0.796292007
0.617504001 0.308627695 0.800953329
0.76337105 0.304623127 0.742690742
0.048622407 0.294839025 0.561335146
0.194489494 0.307097018 0.716401577
0.340356588 0.306379974 0.707328677
0.486223638 0.313070446 0.800182402
0.632090747 0.313017339 0.799405813
0.777957857 0.30833593 0.732073545
0.0599676259 0.303135931 0.608346522
0.205834702 0.311576754 0.715583444
0.351701796 0.311316818 0.712284267
0.497568876 0.317462027 0.798635006
0.643435955 0.317304522 0.796304941
0.789303064 0.311836749 0.718883276
0.0745543465 0.309849709 0.635567248
0.220421404 0.316057146 0.714765251
0.366288483 0.315928131 0.713115335
0.512155592 0.321958631 0.798640788
0.658022642 0.321492493 0.791650832
0.803889751 0.315475643 0.7073403
0.0891410559 0.316159606 0.657842755
0.235008121 0.320796221 0.71724695
0.3808752 0.319894463 0.705696285
0.52674228 0.326404661 0.797870636
0.672609329 0.32553333 0.784667373
0.818476439 0.31957227 0.701571107
0.106969222 0.322134316 0.675997078
0.252836347 0.325725228 0.722204506
0.398703426 0.324635446 0.708177269
0.544570446 0.331004351 0.799429774
0.690437615 0.329431564 0.775354564
0.836304665 0.322455257 0.680122852
0.115072988 0.327139169 0.681776643
0.260940045 0.330332011 0.723036885
0.406807125 0.329565793 0.713134825
0.552674174 0.335500926 0.799436271
0.698541284 0.33339265 0.766819119
0.844408333 0.326053917 0.667748094
0.123176701 0.332245827 0.688382804
0.269043773 0.334906429 0.723040819
0.414910823 0.334463 0.717264473
0.560777962 0.339975476 0.798660934
0.706645012 0.337740153 0.763715029
0.852512121 0.329902261 0.65785116
0.128038928 0.337156057 0.692513704
0.273906022 0.339417279 0.722218752
0.419773102 0.339480191 0.723044038
0.565640211 0.344451964 0.797886193
0.711507261 0.341993034 0.759057701
0.85737437 0.333952129 0.650431395
0.129659653 0.341873676 0.69416821
0.275526762 0.343867213 0.720572114
0.421393842 0.344116807 0.723872542
0.567260921 0.348928481 0.797110856
0.713127971 0.346398205 0.756730258
0.85899508 0.338259459 0.646312118
0.131280437 0.346527189 0.694998026
0.277147502 0.348257482 0.718100131
0.423014551 0.348566711 0.722225904
0.568881631 0.353406906 0.796336114
0.71474874 0.350757986 0.753626883
0.860615849 0.342634797 0.643018782
0.129659668 0.3510575 0.694177926
0.275526762 0.35265103 0.715628803
0.421393842 0.352834463 0.718104005
0.567260921 0.357838035 0.794784069
0.71312803 0.355312914 0.75362879
0.85899508 0.347442567 0.645500422
0.128038928 0.355528116 0.692532539
0.273905993 0.357169002 0.714807391
0.419773102 0.357290238 0.716457367
0.565640152 0.362318426 0.794009328
0.711507261 0.359867215 0.753631413
0.85737431 0.352247119 0.647982121
0.129659653 0.36018163 0.6933617
0.275526762 0.361747921 0.714811325
0.421393842 0.361868501 0.716461182
0.567260921 0.366706759 0.79168129
0.71312803 0.36409539 0.748198628
0.85899508 0.356566727 0.643864155
0.128038943 0.364714563 0.692541599
0.273906022 0.366387129 0.71563983
0.419773102 0.366506457 0.717289805
0.565640152 0.37109834 0.789353251
0.711507261 0.368607581 0.747424603
0.85737437 0.361310303 0.645520568
0.126418203 0.369130105 0.690071642
0.272285283 0.370966077 0.715643048
0.418152332 0.371261686 0.719768167
0.564019442 0.375492483 0.787025928
0.709886491 0.373029649 0.74509722
0.855753601 0.365932703 0.645527065
0.128038928 0.373783559 0.690901458
0.273906022 0.375603348 0.716472268
0.419773072 0.375955373 0.721421361
0.565640211 0.379889935 0.784698546
0.711507261 0.377409518 0.7419945
0.85737431 0.370261401 0.641409695
0.129659653 0.378435791 0.691730618
0.275526762 0.380239338 0.717300117
0.421393842 0.380472094 0.720599949
0.567260921 0.384201735 0.780817807
0.71312803 0.381810844 0.739571095
0.85899508 0.374537587 0.636467755
0.134521917 0.383145005 0.693385065
0.280388981 0.384816945 0.717304051
0.426256061 0.384759277 0.716479361
0.57212317 0.388518095 0.776937723
0.717990279 0.386201113 0.737099171
0.863857269 0.378243268 0.623278081
0.139384136 0.387851685 0.695039511
0.28525123 0.389280498 0.715658009
0.43111828 0.388994604 0.711534142
0.576985419 0.392839015 0.77305764
0.722852468 0.390652329 0.735452473
0.868719578 0.382136941 0.61256367
0.144246355 0.392499983 0.695868731
0.290113479 0.393745959 0.714012623
0.435980529 0.393689603 0.713187933
0.581847608 0.397122949 0.768401563
0.727714717 0.395105481 0.733805835
0.873581767 0.385930091 0.600200593
0.149108633 0.39709121 0.695873201
0.294975698 0.39810127 0.71071732
0.440842807 0.39855051 0.717315078
0.586709857 0.401412129 0.763744831
0.732576966 0.399560571 0.732159138
0.878444016 0.389963835 0.591138065
0.157212347 0.401737571 0.696702361
0.303079396 0.402349561 0.705773354
0.448946506 0.403294802 0.719792187
0.594813585 0.405707777 0.75908941
0.740680635 0.403906107 0.728863835
0.886547744 0.390450031 0.529298186
0.162074581 0.406328142 0.696706951
0.307941675 0.406824112 0.704128027
0.453808755 0.407760888 0.718146801
0.599675834 0.409843236 0.751327991
0.745542884 0.408201128 0.724743843
0.891409993 0.392225087 0.485605091
0.1669368 0.410920054 0.696711481
0.312803894 0.411354393 0.703307927
0.458670974 0.412229657 0.716501415
0.604538083 0.413701266 0.738764644
0.750405133 0.412391722 0.71897471
0.0291734748 0.406590074 0.560665488
0.175040558 0.415561855 0.697539985
0.320907652 0.415834159 0.701663196
0.466774702 0.416806579 0.716504693
0.612641752 0.41702053 0.719803214
0.758508861 0.416430622 0.710732877
0.0405187048 0.412819535 0.584587038
0.186385781 0.420365781 0.700843096
0.33225283 0.420099944 0.696719885
0.47811991 0.421065897 0.711561382
0.623987019 0.421493798 0.718157172
0.769854069 0.420313895 0.700018406
0.0583468638 0.419172883 0.610979259
0.204213962 0.424955696 0.70084697
0.350081027 0.424372226 0.691777945
0.495948136 0.425753117 0.713214576
0.641815186 0.426336586 0.722283602
0.787682295 0.424054593 0.686830759
0.0761750713 0.424923301 0.628300488
0.222042158 0.429545641 0.7008515
0.367909253 0.428968698 0.691782475
0.513776302 0.430122614 0.709920526
0.659643412 0.431069165 0.724760115
0.805510461 0.427393317 0.667049229
0.0972447768 0.430751503 0.647269666
0.243111849 0.434025407 0.699206829
0.388978928 0.433714211 0.694260299
0.534846008 0.434757978 0.710748434
0.680713117 0.435691506 0.725587964
0.826580167 0.430699646 0.646445036
0.121555939 0.43661207 0.667060912
0.267423034 0.438155055 0.69179219
0.413290113 0.438459724 0.696738064
0.559157193 0.439490557 0.713225543
0.705024302 0.439801782 0.718172073
0.850891352 0.433260411 0.613477111
0.149108633 0.441727161 0.675309837
0.294975698 0.44274497 0.69179678
0.440842777 0.443360895 0.701688468
0.586709857 0.444223136 0.715702057
0.732576907 0.443665594 0.706634939
0.0372772031 0.438563496 0.548373103
0.183144286 0.446984887 0.686031401
0.329011351 0.447289586 0.690977275
0.47487843 0.448099971 0.704165637
0.62074548 0.448197156 0.705814242
0.766612589 0.446732014 0.681909502
0.0745543465 0.447393268 0.616797686
0.220421419 0.451736897 0.688509226
0.366288483 0.451088607 0.677793503
0.512155592 0.452936292 0.708291411
0.658022642 0.452430606 0.700048864
0.803889692 0.449889272 0.658011317
0.121555939 0.455095083 0.667908251
0.267423034 0.456184238 0.686041117
0.413290113 0.456229597 0.686865151
0.559157193 0.457863331 0.714065075
0.705024242 0.457117796 0.701701462
0.850891352 0.450894117 0.597848594
0.171799064 0.460190713 0.676155865
0.317666113 0.46078068 0.686046302
0.463533223 0.461461395 0.697584748
0.609400332 0.462051332 0.707475185
0.755267382 0.46058622 0.682749093
0.0794165656 0.461357623 0.617645681
0.225283653 0.465039968 0.680282295
0.371150762 0.464599133 0.672864497
0.517017841 0.466537565 0.705831051
0.662884891 0.465668827 0.690996051
0.808751941 0.463056207 0.646491706
0.136142641 0.469163179 0.672045708
0.282009751 0.469493806 0.677814901
0.42787683 0.46963647 0.68028748
0.573743939 0.471360862 0.709955573
0.719610989 0.469973564 0.686056077
0.0470016375 0.466757983 0.550086558
0.192868739 0.473811448 0.672875524
0.338735819 0.473720729 0.671227515
0.484602898 0.475043207 0.694301724
0.630469978 0.475516498 0.702542961
0.776337087 0.473578066 0.668754935
0.110210717 0.481370658 0.724796355
0.256077796 0.478232831 0.669584751
0.401944906 0.478232831 0.669584751
0.547811985 0.480294436 0.705843389
0.693679035 0.479166418 0.686065793
0.839546084 0.474109709 0.597068071
0.173419788 0.483069181 0.673710525
0.319286883 0.482790381 0.668766558
0.465153962 0.483717412 0.685247004
0.611021042 0.484832525 0.705023289
0.756888092 0.482790411 0.668766618
0.0842787921 0.49065423 0.727274835
0.230145872 0.487127483 0.663828492
0.376012951 0.486803353 0.658060551
0.52188009 0.488910317 0.695964038
0.66774708 0.488365769 0.686075509
0.81361419 0.48492977 0.624277115
0.141004875 0.49637875 0.750597358
0.286872 0.491555393 0.660538375
0.432739079 0.491736919 0.663834333
0.578606129 0.493772566 0.70091176
0.724473178 0.492190719 0.672073543
0.0486224182 0.49970448 0.725633323
0.194489494 0.496975154 0.675374687
0.340356559 0.495944351 0.65642494
0.486223638 0.497331738 0.681965947
0.632090747 0.498051345 0.695148408
0.777957857 0.495587796 0.649833679
0.102106996 0.505519748 0.751378536
0.247974083 0.500605643 0.657254755
0.393841177 0.500249088 0.650664151
0.539708257 0.502511621 0.69268167
0.685575306 0.501668811 0.677027822
0.831442416 0.495827645 0.568276525
0.155591577 0.51044029 0.760692656
0.301458687 0.504696369 0.647375345
0.447325766 0.505221486 0.657261252
0.593192816 0.507276595 0.695981503
0.739059925 0.505480826 0.662204564
0.0599676222 0.514200449 0.740472257
0.205834702 0.51082927 0.676214874
0.351701796 0.509227991 0.645733833
0.497568876 0.510790408 0.675390899
0.643435955 0.511393368 0.6869241
0.789303005 0.50849539 0.631729305
0.110210709 0.519691527 0.764576614
0.256077826 0.51415509 0.65150696
0.401944876 0.513642907 0.641621709
0.547811985 0.515989721 0.686929345
0.693679035 0.515004277 0.667982817
0.0178282615 0.521934628 0.713293612
0.163695291 0.524236083 0.764578581
0.309562385 0.517967105 0.635862887
0.455429494 0.518855214 0.653160751
0.601296604 0.520670474 0.688581824
0.747163653 0.518770993 0.651513457
0.0713128373 0.528132379 0.746734798
0.217179939 0.525059402 0.684468389
0.363047004 0.522472739 0.633398712
0.508914113 0.524346292 0.670465112
0.654781163 0.524599135 0.675407052
0.800648212 0.520929754 0.602921546
0.128038928 0.533636451 0.773117959
0.273906022 0.527432263 0.639995098
0.419773072 0.526900649 0.629287124
0.565640152 0.529409528 0.679530919
0.711507261 0.528378725 0.658939064
0.0421394072 0.537085354 0.742084563
0.18800649 0.537143707 0.743636608
0.3338736 0.531451702 0.627647638
0.479740649 0.532748282 0.654003561
0.625607729 0.533805013 0.675418139
0.771474779 0.531121016 0.621058285
0.10534849 0.54253757 0.767691076
0.251215577 0.538012445 0.667187333
0.397082627 0.535639644 0.618595421
0.542949736 0.538168013 0.67048198
0.688816845 0.537610471 0.658951402
0.0291734748 0.545785546 0.73307842
0.175040558 0.546868145 0.761486173
0.320907623 0.540119469 0.615309238
0.466774672 0.541150153 0.636721849
0.612641811 0.542738557 0.669663846
0.758508861 0.54063803 0.626015246
0.102106988 0.551600754 0.766918898
0.247974083 0.547542453 0.673786998
0.393841177 0.544411123 0.607904971
0.539708257 0.54703027 0.663081646
0.685575306 0.54664135 0.65484637
0.0324149653 0.555004358 0.734730899
0.178281993 0.555788755 0.756059945
0.324149132 0.548864901 0.603796065
0.470016181 0.549947619 0.626853406
0.615883291 0.551568329 0.661440194
0.76175034 0.549137235 0.609560728
0.111831486 0.560839057 0.771578252
0.257698566 0.556482434 0.668034017
0.403565645 0.552981675 0.592275858
0.549432695 0.555911899 0.655682027
0.695299804 0.555380285 0.644153953
0.0486224107 0.564579666 0.744415879
0.194489494 0.563847125 0.727313757
0.340356559 0.558051348 0.600503385
0.486223668 0.559062719 0.622736812
0.632090747 0.560385168 0.651557505
0.777957797 0.555419207 0.542862535
0.134521917 0.5700773 0.773114085
0.280388981 0.56448245 0.639197707
0.42625609 0.56128639 0.5683828
0.57212317 0.565039992 0.651549041
0.71799022 0.563555419 0.618612289
0.0842787921 0.574505091 0.767674863
0.230145872 0.571425736 0.690242112
0.376012951 0.566725552 0.58484441
0.521880031 0.568787158 0.630955875
0.66774714 0.569227934 0.640837252
0.0405186936 0.57813561 0.73716855
0.186385766 0.578096747 0.736344516
0.33225283 0.570952415 0.574133217
0.47811994 0.571535945 0.58730793
0.623986959 0.573856771 0.640006125
4.09656344e-08 0.576871455 0.602122188
0.145867124 0.583698034 0.767658591
0.291734189 0.577733636 0.621883631
0.437601268 0.574511588 0.547777951
0.583468378 0.578271687 0.634234369
0.729335487 0.576229572 0.587300837
0.115072981 0.588424087 0.772306263
0.260940045 0.583963811 0.658105314
0.406807125 0.578699648 0.535420716
0.555915713 0.582407892 0.621876478
0.701782763 0.581843853 0.608701766
0.0972447693 0.593085349 0.774625897
0.243111834 0.589318752 0.674564958
0.388978928 0.583283126 0.532120883
0.583468378 0.587153494 0.623515368
0.729335487 0.584605634 0.56340903
0.134521917 0.597441912 0.766081989
0.280388981 0.592313826 0.635034978
0.517017782 0.59031719 0.587280035
0.662884891 0.591315567 0.611157537
0.0713128522 0.602038383 0.766073525
0.217179939 0.599127531 0.686898828
0.486223638 0.593344748 0.5469293
0.632090747 0.595827639 0.60703373
0.0502431281 0.606187403 0.748991489
0.196110234 0.604236066 0.698417187
0.341977298 0.59645009 0.507402599
0.653160453 0.60021019 0.599616528
0.087520279 0.61133498 0.769938052
0.233387366 0.607847095 0.672885835
0.580226839 0.604404628 0.587259293
0.0307941996 0.614057779 0.712396383
0.176661283 0.614317179 0.718983114
0.322528362 0.606031895 0.509860933
0.0551053956 0.619963825 0.74741292
0.200972483 0.617623448 0.685219109
0.641815186 0.6126315 0.557606816
0.124797426 0.624910355 0.761375308
0.270664513 0.620203733 0.63169688
0.0810372829 0.629493833 0.760590911
0.226904392 0.626187444 0.666266739
0.0826580524 0.63405782 0.759029746
0.228525147 0.630712628 0.662965596
0.0842787847 0.638602436 0.756692648
0.230145857 0.635185838 0.65801841
0.0858995542 0.64317286 0.755131543
0.231766626 0.639665544 0.653071284
0.0907617733 0.647743404 0.753570437
0.236628875 0.644054532 0.645654142
0.0988654941 0.652313948 0.752009332
0.244732574 0.648346305 0.634944201
0.110210709 0.656884432 0.750447631
0.256077796 0.652469397 0.619295597
0.11831443 0.661415994 0.74655652
0.264181525 0.656501889 0.60035491
0.129659638 0.665921628 0.741112769
0.275526762 0.660080492 0.567420721
0.14100486 0.670336485 0.735341609
0.286872 0.663296044 0.522139072
0.152350098 0.67468673 0.727101088
0.0178282522 0.675412774 0.605265796
0.163695291 0.678965449 0.716391206
0.0291734822 0.681649327 0.654646635
0.175040573 0.68319881 0.704035342
0.0372771956 0.686842322 0.671924472
0.183144286 0.687399805 0.690033376
0.0486224145 0.691834092 0.683440149
0.194489494 0.691587746 0.675209343
0.0599676296 0.69667697 0.690017164
0.205834672 0.696041584 0.668616176
0.0713128299 0.701435506 0.694124103
0.217179939 0.70052135 0.662846327
0.0794165656 0.70611608 0.695761681
0.225283653 0.704540789 0.640615523
0.0810372829 0.710641205 0.691637874
0.226904407 0.70918262 0.639784396
0.0729335696 0.714932978 0.679283917
0.218800649 0.714459717 0.661999643
0.0583468527 0.719095051 0.661168516
0.204213962 0.7193349 0.670221984
0.0340356939 0.722550511 0.61589396
0.179902777 0.724249065 0.680090368
0.325769812 0.718440235 0.458999991
0.149108633 0.729104757 0.688312113
0.294975668 0.723989666 0.490787029
0.111831486 0.733513176 0.679250836
0.257698536 0.73123765 0.589542627
0.0648298413 0.737156689 0.638915658
0.210696936 0.737688243 0.660314083
0.356564015 0.732307374 0.437115073
0.160453841 0.742602408 0.671004474
0.306320906 0.738096714 0.485009611
0.103727773 0.746861756 0.654537082
0.249594837 0.745733738 0.606804848
0.0470016375 0.749980032 0.587869346
0.192868724 0.751522958 0.654529333
0.341977298 0.747036695 0.45896861
0.145867139 0.756067514 0.649583459
0.294975698 0.752553701 0.494045705
0.0988655016 0.760132372 0.622419119
0.244732589 0.759477556 0.592793167
0.397082627 0.755944371 0.421342283
0.200972453 0.764858484 0.624880016
0.356564015 0.761266887 0.454579055
0.173419788 0.769364059 0.616643369
0.345218807 0.766213357 0.465946138
0.171799064 0.773753107 0.602646649
0.350081027 0.770952463 0.464191288
0.228525132 0.776138842 0.486611843
0.374392211 0.775529504 0.45106405
0.168557569 0.779458165 0.388947338
0.356564015 0.780456543 0.462431222
0.137763426 0.784527838 0.409062564
0.325769842 0.785208464 0.46155116
0.471636951 0.784255505 0.388067096
0.291734219 0.790440261 0.484947234
0.437601298 0.789565146 0.42217496
0.247974083 0.795101583 0.475064993
0.393841147 0.794699609 0.444912285
0.139384136 0.798881173 0.384533346
0.340356559 0.799574852 0.446653336
0.486223668 0.798900604 0.386283159
0.28363049 0.804813087 0.477517724
0.42949754 0.804177701 0.423020512
0.158833072 0.80839169 0.357385099
0.366288513 0.809098363 0.428260744
0.512155592 0.808398187 0.358260304
0.299837947 0.814381957 0.4709194
0.445705026 0.813649356 0.394999325
0.158833057 0.818064272 0.341608107
0.37925446 0.818712592 0.415115386
0.52512151 0.81807071 0.342483312
0.312803864 0.823989809 0.464112282
0.458670974 0.823270142 0.377474844
0.165316075 0.827678621 0.313576341
0.398703367 0.828326821 0.398466974
0.102106981 0.832248986 0.26279968
0.345218807 0.833591044 0.45184347
0.491085887 0.832903802 0.355571151
0.2852512 0.838336587 0.436080575
0.431118309 0.83794117 0.374813795
0.121555917 0.842291176 0.282897592
0.367909223 0.843153358 0.429069281
0.513776302 0.842608809 0.33716467
0.307941645 0.848112941 0.446566135
0.453808725 0.84763968 0.358159155
0.14100486 0.852171302 0.279363692
0.403565645 0.852670431 0.384406984
0.549432695 0.852216661 0.288117647
0.359805524 0.857798457 0.441296309
0.505672574 0.857318759 0.326619476
0.33225283 0.862647772 0.438661069
0.47811991 0.862278223 0.336234987
0.314424634 0.867445111 0.41851604
0.460291684 0.867218316 0.343224972
0.14424637 0.87185353 0.226768568
0.458670974 0.872132301 0.343212008
0.165316075 0.876657486 0.156507313
0.460291713 0.877039969 0.339696258
0.147487864 0.88174665 0.175897926
0.442463517 0.881973505 0.351065487
0.126418188 0.886764467 0.180304393
0.424635291 0.886894107 0.367689461
0.108589977 0.891736865 0.161068738
0.410048604 0.891795218 0.393071771
0.0940032601 0.896709323 0.13701947
0.401944876 0.896670401 0.406196296
0.547811925 0.896748185 0.25644961
0.403565615 0.901552141 0.405310005
0.549432695 0.901714206 0.254681051
0.408427894 0.906433821 0.400044799
0.102106981 0.911795199 0.123101816
0.423014581 0.911347985 0.38602066
0.116693713 0.916839004 0.124007463
0.444084287 0.916313887 0.358857363
0.14100486 0.921882808 0.109205544
0.47811991 0.921351194 0.32118088
0.184765011 0.926984847 0.0639141351
0.531604528 0.926498652 0.265982181
0.465153962 0.931133986 0.336043775
0.424635291 0.935827732 0.378955454
0.1669368 0.942200482 0.0601728037
0.447325736 0.945714235 0.364038348
0.487844378 0.950971901 0.312333554
0.455429494 0.960534334 0.349105656
0.465153962 0.97047925 0.335934848
