ply
format ascii 1.0
comment Written with hapPLY (https://github.com/nmwsharp/happly)
element vertex 693
property float x
property float y
property float z
end_header
0.47172690233254865877 0.03898925699491250646 0.80564651073788129398
0.61326379596483893142 0.03444015436883495623 0.86421076538937846578
0.23811737164161606017 0.02431555100204930639 0.33430547211018285525
0.22888350249413633164 0.04497238710156110236 0.61461809031451619667
0.32273982030095765827 0.04847714953140551397 0.74331082297557971028
0.46439353829007945507 0.04385843584532148065 0.80170231361368271550
0.60307561939748965951 0.03980556945259228208 0.86446568374229615372
0.80691684198025415142 0.02486781409349853381 0.83139542714253844569
0.21556507991290682624 0.05000391723515427295 0.60762197430392161923
0.31532754131643159212 0.05247508398450902861 0.72762728772787388376
0.45060055714561358942 0.04895569470402757334 0.79540390554135609325
0.58833031915963074354 0.04507689430985963724 0.85956819297881004172
0.77552110343726932129 0.03299023376250240919 0.85098808870049158504
0.19996847915152038411 0.05499040731256287645 0.59804912842435253850
0.30696270498815042549 0.05621003454012277883 0.70741741503040478367
0.43360289189576006752 0.05416102821387362709 0.78789140660988143949
0.57273334577299261916 0.05006404544281876229 0.84999590641596722840
0.75373819912472106441 0.03906688554742994424 0.85051489467621366192
0.18086455915260746252 0.05930310791267791315 0.57585287196596424142
0.30242475436237126196 0.05810246107943667360 0.66379832037288577506
0.40616676974377974307 0.05984452240448250027 0.77794944386455222585
0.54221683090539007921 0.05624648558540216309 0.84458417561922050076
0.72844867119087519658 0.04445642823720879350 0.83741701841289351016
0.18107643659224176291 0.05924583144484765751 0.50746801109354977566
0.28171499270772099033 0.06144584667575616471 0.62618244767260589079
0.36776512818151374518 0.06608313734321721866 0.76635299240373733198
0.49845902351267817876 0.06335542677885747098 0.84086491255908002440
0.66589176685405859768 0.05466506446583455081 0.86134599716725457341
0.24804680021760069919 0.04765616840727255471 0.32905135434101201453
0.24503517297813820486 0.06657354098143397625 0.60019935285214787157
0.33331360411054894444 0.07079543746818446615 0.73709179125451995684
0.46175579769706853739 0.06845078843179674966 0.81491556021199340609
0.61304554092523266817 0.06241830586182503526 0.85913843436164205603
0.78453014849804381114 0.05314785264165074880 0.87366201065720139329
0.20369936403587052265 0.07204208366117534346 0.57513651039525026665
0.31717775978699747075 0.07213057051408033882 0.67496721974585482950
0.42545112555132441612 0.07305692961701554244 0.78245269687885710130
0.55602031900368953377 0.07040004824430314001 0.85714896517056882175
0.73986317979284288437 0.05919966181771371683 0.85349901773945469063
0.27465796851901225217 0.05921325141962260896 0.37900455937432547815
0.28972771938993074903 0.07496914595640707946 0.62355648970251198460
0.38278906283734864813 0.07830169507233966653 0.75341269854896997238
0.49546647663333431844 0.07858045047425084306 0.85442252519870443006
0.67057441304464182608 0.06876031568203568034 0.86361809176531978416
0.84680725874594398039 0.05883861227231595298 0.87116080948495155933
0.24906319527539144687 0.07953139353084782981 0.58565264285857188131
0.33924950829150818388 0.08328190503828851454 0.71973616571576481959
0.45005020046226612562 0.08385188146145816646 0.82350578471243685019
0.60709134063623293454 0.07694350430972862753 0.85927131749043761388
0.77048575447906775260 0.06911068921123346420 0.88569527012700743906
0.30812381739852306994 0.06883315265486561474 0.40702249164565057482
0.32843557437329828907 0.08352510810271668307 0.64386113134678535364
0.41054085799842210402 0.08856942993858309132 0.78982887302759430259
0.53808248567105132487 0.08638760461330378948 0.86897739376429050662
0.73067185457407113347 0.07397575688043804554 0.85246810956977636664
0.28541666884879612898 0.07111637423078608078 0.34864055471367533245
0.28482086681751073165 0.08895593159074159650 0.61622275416775096346
0.38261613770986435679 0.09144440686731256096 0.73911547685708423039
0.48235732712090512164 0.09376397073284209460 0.85914915528155422209
0.65948686597011596522 0.08374137053156498200 0.86537397082788913849
0.82430221164227268638 0.07577397912324493334 0.88971000531136645861
0.25754876078254629324 0.09302692882806366803 0.58233221561116366161
0.35962327892728707113 0.09482399222561273266 0.69893162288258581238
0.44480421040838369340 0.09940195684513601637 0.84037670978577994063
0.60132066721362187334 0.09260123289139862712 0.87691430383911572743
0.77278744557688194838 0.08364843449720808788 0.89147002692115528966
0.25459973622589121556 0.09492585769446326704 0.53638130751368140459
0.34954684706672728423 0.09779469728531237083 0.66346120093184290933
0.42637613443898558785 0.10358054899592898657 0.81718604794715821171
0.56938251111318727293 0.09892823632089586816 0.87359172034824972286
0.75177754303559807258 0.08834723730872499903 0.87207829292617311534
0.31485384833349083777 0.08721836440075397823 0.39749150880449768408
0.33376566774225407963 0.10166663707125823957 0.63638013381825919712
0.40614644096069840717 0.10805812197022815480 0.79664510042273284363
0.53053456452825109579 0.10639550434010906776 0.88043153412701669058
0.72268788376493930947 0.09428455050241228708 0.86456786887041692236
0.89557493694576095766 0.08521982681037193474 0.87703706448039986387
0.31207914265960695621 0.10716102017090893550 0.62983515356155272968
0.39276335695049474639 0.11221594955283513417 0.77788868130362887054
0.50949394661208080581 0.11177800313933611287 0.87293650275969358887
0.68864594308000304235 0.10166891890014879973 0.87619149572925825176
0.85773536263423522108 0.09321131955321770857 0.89424559528772873396
0.28953880518780472642 0.11239852436487740572 0.61861903095789660956
0.37842743948240509244 0.11613478277885259937 0.75460678160354432986
0.48434833273108446328 0.11740207853469605825 0.86555120743177504927
0.65707485759626860222 0.10827703009166500525 0.87825486151903786602
0.82189096708493969423 0.10049426698159422133 0.90259325091443542988
0.27175205532416091270 0.11691687458680122269 0.60041292039806071212
0.37287226477419588289 0.11877000660949327271 0.71841394347605902482
0.45920267473072340358 0.12301548947961898905 0.85816577608006117117
0.62074824968415720505 0.11559027080100225948 0.88731079080995656216
0.79127274979731532234 0.10697030892076682396 0.90325568417381596475
0.26204780016725959246 0.12022341386087383175 0.57032198425180358203
0.37410027381544425085 0.12041974475366272468 0.67224743229412076140
0.44126373217992270748 0.12749229813610291062 0.84018224410391029178
0.58682051008324709329 0.12252659441188507028 0.89283900273433047801
0.77111152046869646526 0.11186326584776913606 0.88854145398409822842
0.26946255358522008816 0.12098027715808491733 0.51505888846999792197
0.36297093519164641551 0.12394611026985291602 0.64425211227417411575
0.42107297482860728266 0.13232484066629104924 0.82551021236892763167
0.56257519427438140713 0.12801383522149256677 0.88412983800042466154
0.75380313814459221078 0.11632927263366547865 0.86963229736336122855
0.32510668262648423354 0.11382824558234555523 0.37702586311011909714
0.32969182748720265996 0.13003512595218807979 0.63697367617337541379
0.39897653401675042817 0.13667539531438879785 0.80178716846305841948
0.52381519441164858808 0.13494736524067843519 0.88491115490580607439
0.70340770745091796279 0.12498199969230180950 0.88752234372268146156
0.87442134502071755531 0.11637250125527688616 0.90274956733876288162
0.30011669083333558650 0.13593936847152116032 0.63017512466246594638
0.38098475514891633198 0.14079436581603066436 0.77795506685532411772
0.49591603511516663128 0.14057812126856075730 0.87564776074642169945
0.66812647934564939334 0.13173480479601695770 0.88911412787715826678
0.83438884226766374397 0.12385915678602019141 0.91132822159070236978
0.27672330001016254286 0.14092200428948586932 0.61428678358582922137
0.37212511347132276596 0.14355287178907361056 0.74069486725920685721
0.46756743204993350682 0.14626630782001576181 0.86704505938502285378
0.63141556942732646185 0.13868470851341493932 0.89280784889022912765
0.80243806966863817642 0.13013065778293664287 0.90802310937926289380
0.26341798270529387382 0.14404841830807721403 0.57763868587348965455
0.37403805862272909710 0.14442048060543830057 0.68166965443349025744
0.44366929376282954189 0.15089651397518794029 0.84597148325022575310
0.58922098690266799803 0.14606270073613150662 0.89863818740365608573
0.77772057773334435371 0.13495619655475446508 0.88815570850215563858
0.26961886093503750761 0.14432804750633532187 0.51230935742511796160
0.35883122237417486300 0.14783242222824638512 0.64781763486190524493
0.41301698097832439949 0.15653795527711206192 0.83482949045305920865
0.55856765551099674116 0.15173012021818879647 0.88749817861020219301
0.74729470068849301878 0.14062026715305406266 0.87668182065955524429
0.27051834444265082658 0.14395255625009126255 0.43107061031346366464
0.31994008047926630889 0.15435232048254782233 0.64286425458329121696
0.38906599258687907250 0.16080699063668929538 0.80790730217925055268
0.51750668151700773834 0.15855229553788080521 0.88573497291367164763
0.69175405784421162281 0.14958271676980128273 0.89620952558412736444
0.86183869655728040371 0.14124959696749747606 0.91280536750705643101
0.27536401468111487700 0.15985910446081910696 0.61663821374497085337
0.37218205445258906172 0.16221603106805962402 0.74096266142206101968
0.46177512877781218270 0.16565330891396520818 0.87591093473010561699
0.62909839805394618395 0.15772048038562516692 0.89656694710350681721
0.80442115245583101224 0.14865327631344477100 0.90546141804881818960
0.26745547671973535220 0.15823135948290914521 0.50686706424699246032
0.35189923836792380563 0.16236469344473017373 0.64938566373348127758
0.40758105056678639588 0.17067548208649299668 0.83419445309526640830
0.55042770888249115124 0.16634008864960095342 0.89084049744581317309
0.73227830370005697613 0.15635432403209023611 0.89013730167143756411
0.90998554293130462511 0.14697197654810034706 0.89552632768278961350
0.27264369389892395557 0.16925775120188490952 0.61488817159665709600
0.37040844132538386368 0.17144519541857952682 0.73782002370388510837
0.45860192548646733224 0.17500403094966573980 0.87482464866671583170
0.62494684153611912425 0.16730353981505532990 0.89692088354649346371
0.80408685939574564561 0.15774679945539846204 0.90020385522790180577
0.24604256855254122427 0.16749014753787730414 0.48519294875585866622
0.31667696876107614967 0.17356158485942477232 0.64801489774487297524
0.38822623251595544946 0.17947840476663348697 0.80949126599346421518
0.51216422497093938571 0.17788853686238464968 0.89393968966040959767
0.68991871517854930218 0.16858619030399366046 0.89926087544396882123
0.86144921539749230721 0.16015618096023775951 0.91373292149136053908
0.25669315706891349116 0.17516628143970738862 0.54369867610206756847
0.36254424954030867179 0.17616529791992802112 0.65474049202254547275
0.41681668441810915127 0.18450019432151226750 0.84161816220295826430
0.56056096036713953801 0.18010590631188197475 0.89694573834340762808
0.74911352868971736729 0.16928409834278843049 0.88639086857255211527
0.93683172290894345391 0.15856542867375678085 0.87706248264845543261
0.26336068060417927583 0.18231031690833437997 0.59028187323819447663
0.37016195568605309019 0.18316322873678494987 0.69992643380371655226
0.44119607855134873597 0.18904454604949230689 0.86215816349649709860
0.59947306775783004706 0.18262939191845559139 0.89611922814722233532
0.79529029245709426110 0.17079446014933488684 0.87488354729412265431
0.20647976469463102944 0.18102755752424218305 0.43992179236406359077
0.26995722718719311617 0.18801904775798000680 0.61326471043559005469
0.36485527190654443164 0.19055059561114115474 0.74041026413800736794
0.45770995577820711153 0.19328762410310854070 0.87055855865195619359
0.62177662784121423556 0.18608710942386946785 0.89600779729274115937
0.80855503674183182294 0.17557801234139627788 0.88806260235344303133
0.20338947332043316729 0.18706878203634744184 0.45936933416102160299
0.27447914179677190827 0.19294824318176928557 0.62151950919261911288
0.36092655203873436065 0.19662225212863726487 0.76108887127201618750
0.46551113873009608568 0.19770211126654432809 0.87399095534258908202
0.63153358338396958782 0.19026484706498814070 0.89656541055540284191
0.81593788268740230496 0.18012902910389114175 0.89211152816801264631
0.19754345592846367374 0.19313398407731588446 0.47694230305660972880
0.27719860429945303304 0.19777668416436378074 0.62649834521900460427
0.36057190994628862679 0.20183642778413554697 0.77058657931988849832
0.47055777696154399425 0.20215392293969877691 0.87554729671587894213
0.63758464132832126658 0.19461533299935435126 0.89664574027759436081
0.82151866293862763069 0.18458196301040016851 0.89288397444264044900
0.18952030061777186409 0.19879121986505846054 0.48586404468767913079
0.27583786980445151871 0.20247333321337696033 0.62562411636175341290
0.35875935805803560452 0.20656114728238941791 0.77037597408661917520
0.46919608489160030684 0.20680057143207009052 0.87467353187757679311
0.63622313125075946605 0.19930597234979091636 0.89577253653744193240
0.82206789882912389977 0.18903986182316048770 0.88920214461349300628
0.18387702351791390676 0.20410858502810094728 0.49128663661262012008
0.27447751344962484366 0.20717065426315012244 0.62474934519075797645
0.35694717603757269986 0.21128453919693424012 0.77016480103513285105
0.46783439282165012463 0.21144721992443468728 0.87379976703927464410
0.63438518569641511036 0.20406231306232003320 0.89559979481173990212
0.82261714574945976608 0.19350042674853493163 0.88552034879029639658
0.17870940631227147377 0.20935423913046105615 0.49600979164019548540
0.27264072161800900762 0.21193367667501580853 0.62457503603421338223
0.35558479938125969744 0.21594717341975497304 0.76929234186299733089
0.46602251724738846805 0.21615395410777679674 0.87358783063537936986
0.63207080742274979190 0.20888502166510031222 0.89612752360197966972
0.82364321180166932823 0.19789729536887412653 0.88113756564185974351
0.17316864067262394133 0.21430136817719025455 0.49535558939227725128
0.26804937403611933666 0.21673135748399924294 0.62252463755437492665
0.35326824215400087770 0.22040811697211351583 0.76389708145410895046
0.46055683678994535635 0.22101353490352695919 0.87282178382681852025
0.62414401130353525105 0.21413660778278298391 0.89898083352517987876
0.82334441494649213134 0.20213438988524914941 0.87277679031748589544
0.16895236255765014310 0.21940826585526868042 0.49867993013554490211
0.26573614397025940859 0.22155941472981222073 0.62305078191079676930
0.35235568740660028197 0.22501399267212143784 0.76236338717024343392
0.45874532281108920673 0.22571694191871094493 0.87260925410024658966
0.61849456539017477752 0.21941456022316752072 0.90441173690619136583
0.82484806744075112039 0.20647157231467372362 0.86769196922227143087
0.16388726784206436582 0.22428634995392973672 0.49732632499621171052
0.26114479087344660835 0.22635576248248531761 0.62100036642798983610
0.35138860693593176876 0.22930732676864942765 0.75498445543210856989
0.45237961212326849303 0.23068736817487761614 0.87316619432444408933
0.60961335818211392912 0.22478819578048311878 0.90866805509842729638
0.82455080520593182491 0.21071668705929719190 0.85932909265478829575
0.15569600080508305684 0.22890792109416094324 0.48871716351349098195
0.25295083273592383621 0.23096196516698624945 0.61239486511773699728
0.35031214651283365535 0.23298690316419812252 0.73591574412595661681
0.43915606945863927546 0.23589606468261717365 0.87195354260379887013
0.59368882478997198060 0.23038406756017018595 0.91142671404370056987
0.80921606974302540127 0.21633848603115599096 0.86122264189969433001
0.14400772873054903944 0.23298981720345357527 0.46747197905466969514
0.24030699033489219540 0.23515789596027139585 0.59255423935582562933
0.35566757374045232520 0.23473396747952485208 0.68961297000672472368
0.41902016909393369204 0.24103048983845631881 0.86312606148404835693
0.57040208421423888030 0.23595576122923736517 0.90723169368672229584
0.76893964876009279763 0.22432777703926096158 0.88200749030699721054
0.14799244542100126187 0.23360720806611878775 0.39948211083608820005
0.21045198416792831875 0.24033925718480922407 0.57431406734181511542
0.33343672201425605950 0.23887878694768832633 0.66016394034844438909
0.39641566781661080610 0.24522584695828125723 0.83422635792781441033
0.53070070686950432393 0.24233454861604167285 0.90346477258814805733
0.71287599651285105118 0.23307665706530306116 0.90229875226822409129
0.91354266156048491432 0.22109981432622927144 0.87394327574951691240
0.17831924138255780821 0.24549158050142289023 0.55349681867927780221
0.29653768136847030723 0.24467209984658794264 0.64635386187095433819
0.36880680287076783586 0.24975230817897781099 0.80675800376567574634
0.49049529385370682633 0.24844222824727987819 0.89451310279759432831
0.66406218276234230125 0.24048045593924383123 0.90600532423309565466
0.86807275881895273884 0.22809915137203579105 0.87273465048615894712
0.15609068882943372136 0.24964776378379716082 0.52404462865485224032
0.26525182587842288662 0.25004054534470598892 0.63021715163895930534
0.34800022281381765010 0.25375326919660917691 0.77521597959633903319
0.45979250771493246353 0.25366188299994946176 0.87751786851942659151
0.61704582808763619450 0.24795761045627992547 0.91299467096573982960
0.85300077687148623262 0.23133727585407398708 0.83276206769892269222
0.13709391687324082310 0.25371292964630376421 0.49576708332960578440
0.24053318849278526592 0.25486140200164958403 0.61035134369715438041
0.34635618038897836302 0.25569138735921020933 0.72143121825377931611
0.42689612878743415925 0.25944522850849738305 0.86967197823560249414
0.57692385501292153815 0.25466933878470660035 0.91577066797381334595
0.78538702645202851382 0.24194305731762905110 0.87595879219725192311
0.12779167527826720829 0.25749036868464286743 0.47101438669966622097
0.22026327889045979602 0.26008518232230726230 0.60172221913636658730
0.35135282686032054400 0.25754452459439436396 0.67565699406572921060
0.41125885046918214671 0.26401873919032947668 0.85423168019817230512
0.55273915451068156290 0.26030791989174006940 0.91289476866001273425
0.74843527857438263418 0.24941430308148632156 0.89185453888542465251
0.12352250990692584254 0.26127019651682059642 0.45071385642890787748
0.20931591045300040888 0.26473072551879361924 0.59123903556751777888
0.33945258195437966187 0.26232013745877524880 0.66657471752281338695
0.40067974386683019583 0.26858167476738348256 0.84320647386923130995
0.53676212709469395268 0.26553796065135704119 0.90980420514061588477
0.72270989825074505308 0.25603514751564193652 0.90309701356308924591
0.12316829541711621365 0.26716518974536657138 0.47206250693224793835
0.21658738778177119566 0.26959786374736555148 0.60137673568496274878
0.34672444845316474638 0.26719061380071468248 0.67671190933246450072
0.41033510177305593247 0.27307834227488347878 0.84983857424452979856
0.54866560351291815412 0.26978347900645216484 0.91313219897583963736
0.74095059199453361387 0.25946729733090306835 0.89710908287570767516
0.13816854246173801424 0.27364191115373182051 0.51824264186134261223
0.25113771042917354404 0.27349103630431986778 0.61881619652679831223
0.33202788262239513184 0.27724798380828041822 0.76654302038702770705
0.44067474333930356512 0.27745131666185829378 0.87346673771085359128
0.59249634393108796537 0.27259160883795224839 0.91693112786566899342
0.81079457782177988268 0.25874704840804046979 0.86266408812301964559
0.16259693343183143077 0.27919153200332452736 0.55648778913519247880
0.28319639983638983383 0.27803752936682896157 0.64584409818692245508
0.35477730255012551730 0.28280111988451783755 0.80725232128327339964
0.48366204403931806199 0.28063754247850086765 0.88443000809514116245
0.64499442642481985555 0.27457618251287951860 0.91391358465885841333
0.11169297647432528675 0.27870854218338936281 0.41512900390454388067
0.18029999993563319838 0.28431254033985592367 0.58091756644122094499
0.30948458158093083981 0.28204069775891632554 0.65765316431131459751
0.37730387711446605747 0.28722798716675529418 0.82458996505237880381
0.50978626074907351651 0.28465698213109830172 0.89648001852021153013
0.67986770410786934171 0.27745684526345271159 0.91310188009119108710
0.11101158398541746686 0.28559332306248963462 0.45473458973444175202
0.19535527268741828544 0.28912735839454423159 0.59738877534891798859
0.33074237544492607332 0.28605617928473658917 0.66500639540256667459
0.39252345480485967277 0.29192723221140332024 0.84081786130734204043
0.53175055832833628688 0.28860011907852550772 0.90279501033375808561
0.70923493677361904020 0.28042219873659329776 0.90853378588923328074
0.11509763204980023865 0.29184112994602628977 0.48733140394249901961
0.21518144164576957778 0.29332391449537470463 0.60684649333927054293
0.33625658724677426337 0.29210286649526667757 0.69550342500405171187
0.41313929974963453651 0.29601333349083169821 0.84911455744939767776
0.55281557920010249152 0.29265477895973046607 0.91043189605107022189
0.74289818133427309998 0.28284701101514175825 0.89765061255021139086
0.12167493797166260838 0.29743561085140668432 0.51034032814750285301
0.23034462460362378766 0.29780323251412155194 0.61723363873809822255
0.32639716748714470151 0.29958248438864087948 0.74267066753018340375
0.42830302390591779016 0.30044200631519701883 0.85949995510473586879
0.57292435195451374419 0.29655237272106871327 0.91354985502269447917
0.77428715871709041796 0.28526483006823133426 0.88418568577459399904
0.12788255111278207243 0.30275027874285548313 0.52796717578150287320
0.24418562196734483472 0.30213481224388827329 0.62363908928108580110
0.32621621694227048716 0.30545717332123167864 0.76968402686508441413
0.44026271545365108784 0.30495476972241675195 0.86866985421690812164
0.58937929225114804588 0.30059614781329607736 0.91611361857479034487
0.80340261693002901211 0.28767500031292619900 0.86813789543042629848
0.13276645506924319995 0.30791185422967670693 0.54161446380871614004
0.25622723922234574845 0.30638234451709578376 0.62676438310869508896
0.33182481744021707915 0.31040737347595015461 0.78226375804188241769
0.44991807887479318140 0.30945277028622059090 0.87530197159518197125
0.60263024130113551635 0.30473401141066963627 0.91746201110603142759
0.82833536392760631628 0.29032294821220794301 0.85231382587398996087
0.13860400004691311726 0.31294670363457904871 0.55385978568695404256
0.26779203734547296634 0.31069357309533868206 0.63059066426153731477
0.33833271670534575959 0.31525138292211934976 0.79352166332682261274
0.45957306967069033732 0.31395143190557495139 0.88193464829018197726
0.61722967331768108235 0.30873624248571956974 0.91682879282513074504
0.11490182899160285290 0.30799826393308477046 0.34881760689819213406
0.14910416942966825404 0.31770211828972322321 0.56517627347938703686
0.27829259314078069742 0.31545165933569840888 0.64190663524468560830
0.34849410337761516088 0.31995653737446888565 0.80533440836288006093
0.47288157820578502477 0.31831857034078725466 0.88912225825266633095
0.63578690715790064925 0.31248408725359327898 0.91630162205435006229
0.09735586348831506975 0.31600798898911297563 0.39543698664898813133
0.15923657809443056421 0.32219107785700062951 0.57110810065437256355
0.28508378741203099782 0.32036178224314415530 0.65275001647840791286
0.35904844257497547932 0.32436100579201465610 0.81064541219277930217
0.48433489042190869256 0.32262884008392311852 0.89311214003270678052
0.65307895566903684248 0.31607102847702478465 0.91170885398030576674
0.09401664982330384945 0.32252178406787268550 0.42709750063248780316
0.17212316712676706265 0.32664537355455880441 0.57891656796788670825
0.29701595984060480404 0.32493679432403804741 0.66196147505798930144
0.37145798912115302048 0.32882500901425121276 0.81915417821107294749
0.49944137532659377277 0.32681491297999315515 0.89765759941182077242
0.67217192166669936793 0.31975070391340265630 0.91039414988002143048
0.09353913756192801243 0.32866207712761069670 0.45455109955345424089
0.18310015839885723787 0.33133775843282609053 0.58953207693657749822
0.31372250894615416605 0.32891825524616041809 0.66415479993810799808
0.38431665368764961199 0.33324357374706098378 0.82700295527338640866
0.51589598435987960023 0.33086934705006276758 0.90022204980294728838
0.68792367602831794304 0.32385220921810736749 0.91399100833996493876
0.09820068518242630606 0.33445723407549804440 0.48037540237416487265
0.19539854865268088679 0.33616920578888243032 0.60413027187225654124
0.32745406148344136099 0.33357731478360691524 0.67664641523306767734
0.39858139931025315938 0.33776511218953247928 0.83870945797560825241
0.53645291443411613486 0.33476147759331748022 0.90268218235354069634
0.71550307684248459772 0.32680299834066178777 0.90612711712015114873
0.10176087995423580002 0.33946571715769174871 0.49004313079459138613
0.20182159579338590505 0.34081020202324585622 0.60958950929781585693
0.33148992442185087892 0.33851608638958724518 0.68561473226058822217
0.40548221525349281702 0.34229977073490980288 0.84346551153505455733
0.54829749528401949821 0.33881769090930219379 0.90017367210769905217
0.72956913267256262579 0.33051903117770692342 0.90035192670312369501
0.10484289469381732895 0.34457186759029551082 0.50041448337703708926
0.20872424416271032066 0.34542486583734344219 0.61434437977475553350
0.33600501044870501044 0.34342785357454841400 0.69387922465323981225
0.41283564898969826729 0.34681836728300352579 0.84755699286681240867
0.55699876324739361344 0.34322530553151620047 0.90228495881280412760
0.74220153741249061952 0.33447076106264961304 0.89668522519856641573
0.10660310749435017441 0.34953228479096964953 0.50680361579286703488
0.21335068226160142091 0.35001651238730940863 0.61652004685560624075
0.33681108000215131959 0.34848433108951948345 0.70167048296487655179
0.41743453800546276300 0.35137428834082257145 0.84977241888122034830
0.56384486798132193996 0.34758404979947665758 0.90119861935331024849
0.75064628478280182033 0.33864420078266849190 0.89324920104415550526
0.10704228566601674266 0.35435097887384175985 0.50920947742051658746
0.21570017035448552090 0.35458779684054875236 0.61611764617678876910
0.33772815106206860447 0.35322668125026762675 0.70337354329333257041
0.41927962479382141492 0.35596554526912094207 0.85011066244335531383
0.56658831765350292642 0.35211509004393581890 0.90021727607190171749
0.75442687588513157593 0.34308972155235567536 0.89074412072013675612
0.10795867765448093067 0.35911064782134988205 0.51091386041811448493
0.21852726694910476479 0.35910472732809534113 0.61501327556308094113
0.34007763915495270446 0.35779796570350697049 0.70297114261451509876
0.42112434447185143060 0.36055879630926690460 0.85044948232518480236
0.56978090740569520278 0.35660602402419017132 0.89857601184641433534
0.75772951894999318601 0.34759825568110874761 0.88894167166557902515
0.10707571710884053462 0.36379293459382422427 0.50933817171520345823
0.21859982433820607239 0.36366031538167120640 0.61203286663500533482
0.34110538597292211493 0.36223818054417183943 0.69858670880178941331
0.42066476911281558415 0.36514528284383301893 0.84825062249096061517
0.56842206636899583749 0.36130669960513511763 0.89769907992189934554
0.75493591446232521935 0.35253794453290643318 0.89017492360668792895
0.10667036506492873216 0.36842086740060597805 0.50706051307740229728
0.21771756216623619484 0.36832994906445576389 0.61045591477336247355
0.34070072127284112273 0.36685079414865595648 0.69630775299931257916
0.41975531945311789217 0.36977586386631255966 0.84671283624020532432
0.56706284719213484458 0.36600670318532674274 0.89682269031112871183
0.75214229618735606309 0.35747430074393793387 0.89140813304035537712
0.10758713243610619481 0.37318054182071547231 0.50876434525975822165
0.21911187461755990413 0.37301993937136551649 0.61145758148662965326
0.34209503096670335065 0.37154011792741398201 0.69730941121108891423
0.42249907281404530668 0.37428957985141037001 0.84573072110489699860
0.57160362725197844114 0.37038199501523294543 0.89320062113334341980
0.75592218891600870823 0.36193247460331501308 0.88890431587507523492
0.10670418292029854035 0.37786549470580421684 0.50718869056279780594
0.21727477909720435689 0.37780028604259913161 0.61128404418398496478
0.34025792993143127996 0.37631913154233714858 0.69713585690547552609
0.42248866235215459808 0.37884195887513882894 0.84287201683997226009
0.57069393732513640227 0.37504523044458742964 0.89166380227069974573
0.75360617362785831119 0.36681314379235002709 0.88943553837087707681
0.10677608329763935147 0.38244373377136170467 0.50420967231575830603
0.21591528932112893924 0.38252561221998160335 0.61040852844497228702
0.33746597900301761319 0.38120485897679129428 0.69836566614993456081
0.42247788753740356249 0.38339699853888020709 0.84001389739623988362
0.57068328108117172270 0.37962893081888038349 0.88880604839090493474
0.75224499168808034444 0.37158309999293587245 0.88856334630768774030
0.10769247528611036735 0.38720340271886982686 0.50591405531334943113
0.21683198775579448636 0.38726862343628021268 0.61211214809014791172
0.33790580591406688127 0.38599890246322599019 0.70077011159208846269
0.42522130412005926248 0.38792004044550315589 0.83903245209698018581
0.57387558093192536646 0.38414052169926216074 0.88716559852675214159
0.75602454763846815844 0.37605059977384486247 0.88606019897846255429
0.10860923714236470072 0.39196174408267553391 0.50761787049273021655
0.21774943144095679215 0.39201031254147794547 0.61381464910187766293
0.33977771583727955917 0.39063187269183557992 0.70106977436451500818
0.42886377368782985231 0.39236821299414803565 0.83673013129099260698
0.57667457070022631882 0.38866837272013199378 0.88610268358118537968
0.76028136703994808610 0.38047107192613727200 0.88285572604594297896
0.11180255707715697211 0.39673644290168846860 0.51190025323809529301
0.22189791598746977375 0.39666363939421278584 0.61669293044920758806
0.34631314983386030093 0.39502141163612558561 0.70043996050097079298
0.43526006478523027177 0.39678571536938356257 0.83630505244768815754
0.58225584490495785328 0.39314997280980740202 0.88687494460452231948
0.77206555630562068160 0.38433929136890976341 0.87451293198297241904
0.11499586598210966015 0.40150847560809388437 0.51618260197751653084
0.22700126421442551328 0.40121358506817611511 0.61816789075389988461
0.35332585003899474874 0.39936458947995084889 0.69910882953561648279
0.44165637518484152091 0.40120788344168240025 0.83588003311480030266
0.58735951612287085055 0.39768725992147269110 0.88834919256572464352
0.78241733405324953576 0.38837990957550150295 0.86827561593025026632
0.11866678890371386290 0.40622748740511033239 0.51976299778501611204
0.23210424533105267209 0.40576552485399358661 0.61964342737829347652
0.35651948469236621753 0.40412463015221677942 0.70339047443302538110
0.44850186151145088331 0.40559861011575781831 0.83479520335716250745
0.59246319561316840296 0.40222654661760032235 0.88982346603137985053
0.79372328262256708342 0.39233113274932213121 0.86063625899659090823
0.12281495597418608245 0.41089480587644700016 0.52264200847881780998
0.23816210667288509328 0.41021808262996428684 0.61971569396896852844
0.35828174022216102701 0.40903442404891521278 0.70977565584440494018
0.45534774528045240949 0.40999467448766319100 0.83370989079618362805
0.59756688337585062154 0.40676783289819029577 0.89129776500150104113
0.80311918084004196849 0.39650177684297055469 0.85580425649171032454
0.12924004823351809002 0.41557648769112986997 0.52809901041890250362
0.24792828887191634135 0.41453924969376026999 0.62026246630087478184
0.36375302601267145430 0.41380284025636981937 0.71663411384424113848
0.46494708346874874527 0.41436206279800685826 0.83450239651759572368
0.60637888096588565823 0.41117506235399803316 0.89324653570691647797
0.84581369877145839986 0.39743536767189724390 0.80796104776966126693
0.13338821254652885595 0.42024313963431458863 0.53097801261121324590
0.25303130859299183264 0.41910052087371768570 0.62173812194608846227
0.36885600988676015000 0.41835544657033929550 0.71810965897011902470
0.47359002151127516100 0.41862636829624627621 0.83077721492900924449
0.61291397266928493437 0.41557259416351605141 0.89261737467644564070
0.87525203337359713807 0.39957616103043824829 0.77367619802209219859
0.13753638237446255688 0.42491112463379659969 0.53385703180649923816
0.25765670326756956454 0.42371214685044988890 0.62391569651725997669
0.37395900479068827638 0.42291071899692289637 0.71958523810194752190
0.48501223908359747394 0.42264593531981914376 0.82296850623548867265
0.62040359403231704061 0.41987673724395296881 0.89058557094088997008
0.09923985365589342578 0.42310935634393215254 0.33845427727355970049
0.14396183071428364508 0.42958814622402430317 0.53931342342093868680
0.26551354727572318293 0.42824341438515001190 0.62726860262664774215
0.38086203957256542507 0.42752805439623614570 0.72433959176959572535
0.50289099476794985044 0.42613029617537145910 0.81159336885863830879
0.63207845741045876053 0.42401045484883337355 0.88832760017635092886
0.09505472516211206646 0.42918843537016521106 0.36542871026257567335
0.15170931023046477226 0.43437558052669239528 0.54875103380793821550
0.27803360615358868602 0.43254724183859477593 0.62969278695098951371
0.39338207087582216515 0.43182521656815514577 0.72676369107906801936
0.51350273957703351790 0.43061957897588426514 0.81682171995971730727
0.64793854625894098387 0.42796974780923902060 0.88584341137392286214
0.09494789506088464892 0.43530330438559378115 0.39825718718202551827
0.16687455760916339309 0.43890024982283531996 0.55913600323170109530
0.29606129706086126152 0.43678706283260665399 0.63587142119476691704
0.40759275826282448385 0.43643594278370184680 0.73855120969156851096
0.52628200372109457117 0.43536939396542617686 0.83071263906240000452
0.67073846871979359019 0.43173262176295174042 0.88500925538514740865
0.10009085538068449028 0.44087487488828308591 0.42337075090726833393
0.18203942960516206195 0.44342491364637015572 0.56952152347069917582
0.31122619663145539848 0.44131839193767369300 0.64625702644863458612
0.42466663994380726699 0.44076183164232679568 0.74613129149360657433
0.54001614809035414222 0.44001982694512137284 0.84320028813135761148
0.69735469908470082423 0.43513791011297825451 0.87856748668785833445
0.10703410136050069135 0.44647718701313066081 0.45176213878320770068
0.20091298405375856984 0.44781485958958566762 0.58038095612826512415
0.32771382299462520349 0.44594681413733949782 0.66062257881485941802
0.44210914653217558978 0.44529087183213889034 0.75909357382610609388
0.55745859952951826166 0.44453553657188210613 0.85616240043411129257
0.72720132984396090858 0.43848148639142853211 0.87330294001613784083
0.11625567754890206440 0.45207055588641381627 0.48272901709243248858
0.22588013319068828144 0.45185825610430313537 0.58821017400093045246
0.34695562696790060997 0.45053990593913406659 0.67686476281812213429
0.46135127073895348948 0.44987063854348374736 0.77533503698438799301
0.58242641670805472831 0.44855894818723884843 0.86399026163169112547
0.76695789077021103708 0.44112759291923347993 0.85940065086588579568
0.13491157401246223202 0.45695952122031824327 0.50575603582976391692
0.24930753801701746597 0.45627692873422465158 0.60422558915105550881
0.36752056069105376590 0.45523676158965420413 0.69708642813336307853
0.48334794793855023753 0.45441508032956523522 0.79345258096447912610
0.61253367154053028898 0.45232853804762812588 0.87018999143274211594
0.11337892440699333385 0.45599729834117397331 0.33312113347870947466
0.15764472268680168598 0.46190358944203224745 0.53463899748638588072
0.27872021646400735317 0.46058523927686317867 0.62329358630357756255
0.39502524530276411641 0.45971720238891106147 0.71895787121764809235
0.51800905314875167473 0.45821339687666728935 0.80480829325809599695
0.65578230035866857950 0.45531896665903659471 0.86892729329049611664
0.10546975555092721888 0.46409150625975087445 0.41295398186202564306
0.18790326467512213915 0.46636202493386130774 0.55838779305268970710
0.31804320046070727601 0.46419608554145141976 0.63372329016232642473
0.42432992291559062936 0.46424837518230166467 0.74410794431247351266
0.55303838030903018641 0.46220819400082935324 0.82154667188254015819
0.70130650449514519984 0.45836039577177994930 0.87024525723727630400
0.11584366754356802132 0.47106612082277582454 0.48369131000552595401
0.22928683817155126601 0.47044295149300358050 0.58356031837988098232
0.35274791222609264141 0.46889278488029506597 0.66870942331852523122
0.46094329655786897559 0.46875295936515981587 0.77628927486182364159
0.59203704156973058215 0.46650095210813030677 0.85022332441319314889
0.77608224464895581018 0.45938908672284328727 0.84635338837032603188
0.15377947531950833526 0.47568778847220782868 0.51985339352707693461
0.27199313846054945509 0.47462097114674439702 0.61271279081942275901
0.38925296480069843108 0.47363355640436183291 0.70697355065516620520
0.50746662794173946764 0.47256673907889151787 0.79983294794751191858
0.64571548504348741382 0.46967924264998123229 0.86325406507326074568
0.10916941707934516015 0.47838836890342395503 0.41667251768090601827
0.19685472074939439069 0.48005563436668602373 0.55438734565209946137
0.32508596708348452831 0.47807514484873625538 0.63252756035371537902
0.42994361822835797105 0.47819990875655510321 0.74501090913866963028
0.56246779820805847816 0.47584212271534764849 0.81684363571993001685
0.71216395027987666744 0.47194182964608905051 0.86344543393018668986
0.12590161123238632901 0.48533586878673007359 0.49583593749149568186
0.24650047926804963261 0.48403722954113242993 0.58519040172052916304
0.36900736871359463009 0.48257312532043578068 0.67174150503267571199
0.47577405711806097788 0.48250577954486384424 0.78141950039553287333
0.61354463216155052940 0.47969128892470969117 0.84554392712828885248
0.12076924268945214702 0.48486415241076746829 0.34057656273761793830
0.17363900053305550419 0.48948958874519321594 0.52944299030693009467
0.29853082978893130672 0.48782031825785693302 0.61249005143048451671
0.40911382609745905459 0.48739538687860550770 0.71656043408483460766
0.52828196650638992171 0.48622251678915473505 0.80801702714383416559
0.67177591016331550389 0.48292495086156494999 0.86373264278612593703
0.07337597309420144931 0.49772394227508398590 0.52580170168914452944
0.22926971243887570018 0.49337414692279346617 0.56329934922273094955
0.35320770489385960866 0.49178427901855137350 0.64774777288967633204
0.45615968656177635632 0.49200789339442946302 0.76302977673614236220
0.59154468132793036617 0.48942521922180814986 0.83065968734744588531
0.76699332845023293626 0.48338770527294283585 0.83942643434671304625
0.15666981847761055069 0.49921254443745716189 0.51901405174695414146
0.28346929376065482797 0.49737780350242694061 0.59925830276885694303
0.39786862554785273893 0.49660195180100830115 0.69772115772956977420
0.51036031130786885246 0.49599157054729675620 0.79898682279194077616
0.65528327112560680323 0.49260819978968045652 0.85260357376969309051
0.04994695095057145179 0.50753034683914433067 0.51301615654310195325
0.21060714698406055034 0.50285014760585511340 0.54351224803033693078
0.33788354066754744398 0.50097570537928459711 0.62305581778054086595
0.43988336942589023604 0.50123209273059088353 0.73973583499011519304
0.56954475806891891043 0.49916581480043215047 0.81577553258147250670
0.72925111730151614964 0.49456501815023040658 0.84767298661210510602
0.08466501455949225485 0.51260063155002844049 0.56574785651228676198
0.26072915586155159806 0.50681202638812872241 0.57361597950216669517
0.38275947471475835204 0.50538096365005480415 0.66086712825589410958
0.48523723772325499937 0.50557100500152241107 0.77684447168857262422
0.62586665100298655151 0.50259824622958904072 0.83677023749151158150
0.02063996040422851758 0.51723757085758381713 0.49109722511257541955
0.17366751305498609459 0.51326587755014152492 0.53280845700196122205
0.30857355772127514904 0.51077619408565055892 0.60114303389535783673
0.41772849856949756386 0.51039709226506935202 0.70731011867931137260
0.53403651980818378497 0.50943579068919742081 0.80296825604805177612
0.68420253448167689392 0.50569563984948506796 0.84888349055274125998
0.05120142726533229161 0.52241604878816783053 0.54401188019761537173
0.22961883210605876782 0.51656844290927839136 0.54842520143654138742
0.35737144857378616569 0.51466761900900914739 0.62726936157526935744
0.45698976045364492204 0.51504924397468132558 0.74744689264259622785
0.58998815909275881264 0.51272503095788435346 0.81858427963765090229
0.77687138082000717354 0.50604776817516050613 0.81055739953323713287
0.09127316358138803931 0.52681342100566952436 0.58295439102133905784
0.28080061934458072637 0.52027468099276341640 0.57104939441818813872
0.39901663441853979508 0.51914124916026660461 0.66390408585515880979
0.50054326036718033155 0.51933741877887762417 0.78127745014574845328
0.64403142915934097346 0.51618639601058147193 0.83700429997424841133
0.02174910403540586748 0.53189222153299575702 0.51046313907796425635
0.18287956562787180403 0.52737883528337992090 0.54027220105927298288
0.32446011596745943928 0.52439994824430991027 0.59880194600430070029
0.43123249651288447781 0.52416606346486749324 0.70846845213634113136
0.54849499501946064051 0.52309870912500822104 0.80272378527172194573
0.70437999467404244225 0.51899538690147684061 0.84023889955172303967
0.05050510819176110694 0.53678661694480445110 0.56010279841484023056
0.23989005014757272538 0.53045907540615389042 0.54841093370850801936
0.36954969975007245786 0.52842609652060268388 0.62445381045040904144
0.46726330285347483784 0.52886659668299773607 0.74742783404431845096
0.60216766362844575955 0.52642354282615932970 0.81576576011799761812
0.00171486089998347567 0.54053262552467029600 0.46307652331135629176
0.09596724240758763846 0.54087601131148266287 0.59112846829626763956
0.29440855472327953635 0.53392736877496971282 0.56613362195369598684
0.40833436346726625921 0.53310462443130546273 0.66529054484040517359
0.51177029175979782405 0.53308202871303067560 0.77985766483418439421
0.65716383737001493603 0.52985214584864437359 0.83278666546101631774
0.02782178652854595466 0.54603938978829258399 0.52253492196502993039
0.18780071625457614437 0.54181580012329244589 0.55403944822653938829
0.34129847931511314574 0.53799758923647211795 0.59506348058024005621
0.44378193446456842830 0.53802109158406907774 0.71102933478210172957
0.56485945994119668434 0.53664945200231650713 0.79967993858889940828
0.73075301043984819405 0.53189892108702030438 0.82249414288442868060
0.06076673083349648508 0.55085721876585991286 0.57786413016758164662
0.26176017054849753940 0.54401243180366409824 0.54912569198525440495
0.39189609808444197947 0.54196640180746591398 0.62446932914541830595
0.48675222660941802610 0.54253186560443067421 0.75163938533384311302
0.62260911567666932243 0.54005604424477227088 0.81857874722917878252
0.00576488873412428059 0.55560137214126370520 0.50181164506559694516
0.12880446315607507746 0.55405839035780268809 0.58757948554634631400
0.31987909165836048153 0.54759552519641374602 0.57340525946604015139
0.42856179039738784287 0.54711623037179402118 0.68026352879606644120
0.54010463588126178536 0.54643203231512782470 0.78292033883122802429
0.69550705256904432616 0.54254161566853997822 0.82114770862861397038
0.04466767614740893566 0.56030177424995952773 0.56023355976804711798
0.22678087669998564513 0.55490794115432151568 0.55923140914128321999
0.37884483701005439160 0.55128876826701067593 0.60236346282567165833
0.47274982847517438289 0.55186036033110541510 0.73092953987200093291
0.60336200636995473978 0.54979461394273421160 0.80557385243555834631
0.00000000000000000000 0.56476352694876086336 0.48676728318676065754
0.10749370250429640672 0.56404695704350438223 0.59536607725457324491
0.31604353217358188699 0.55675248277861844048 0.55552928218911501457
0.42758739350717378525 0.55604164001366729320 0.65818409971907954059
0.53245782016638254497 0.55580668667804122851 0.77064192672195497291
0.68166064545648863415 0.55242572701258763068 0.81797751722128120289
0.04239912863909831714 0.56966168609134748557 0.55781975797196958755
0.22024583778329570594 0.56468552429036633633 0.56308704848811264032
0.38231802870392517235 0.56043246780174071908 0.59151891303301029623
0.47431833896719743926 0.56106960034408404070 0.72288156762079136541
0.60302316349370299609 0.55914933403143773916 0.80032788442614988256
0.00183653817212404286 0.57419227721366772332 0.49016883401208621862
0.11342777604019417537 0.57322885971660364479 0.59274936581123915946
0.32550132944651999356 0.56580580512543332539 0.54773867107393625631
0.43609306544514003789 0.56513440061742925558 0.65179158698187200649
0.54001128404557074969 0.56491888969418013744 0.76564725731811666964
0.69397856189967144225 0.56126748084583022447 0.80598536179636171006
0.04800307975262489701 0.57901438946973449173 0.56752950819020664408
0.23187754214837869027 0.57381952020449777940 0.56394624448348473766
0.39966674149988529186 0.56926991231167467511 0.58398214384383384523
0.48690326724076987697 0.57015750913754659202 0.72234092777760394721
0.61751405390312574806 0.56811840198486573961 0.79698778366159372943
0.01004031162795546682 0.58377849081277366494 0.50790618800329190297
0.14387778400640946486 0.58157981337828357216 0.57781449900927861485
0.34121785948750682493 0.57510165241124500124 0.55444470473700191437
0.45228640358815458411 0.57436388548559802469 0.65779659931376077697
0.55954200756737682010 0.57389044494831231713 0.76674940823846104987
0.74639629357046632929 0.56811251905502913040 0.75878192606732919323
0.06643233519678168331 0.58825213826062527911 0.58209195713954842155
0.26788783535988336393 0.58204058622859378147 0.55268731250367209018
0.43281603756445130582 0.57776251796526933990 0.57692717375331326046
0.50861440032092375407 0.57932980058810634727 0.73208560303236702715
0.65161739670367080368 0.57649161883882060753 0.78853039012322301282
0.02691087661973464926 0.59339806185350885137 0.54844089207471080627
0.19567148185686791817 0.58929583299486265613 0.56705956164170301381
0.38061770196260102939 0.58376334998237833229 0.56189701138115399903
0.47786461722474310454 0.58390379172922257656 0.68555030521596516113
0.59608290150782061723 0.58268374954512203168 0.77840003575294558491
0.00740892939857794221 0.59786509871258597393 0.49723481145923298374
0.13182386782861332808 0.59624219479832230029 0.58098263886935563871
0.34965635597965155634 0.58867649226443963251 0.52751734461333543713
0.46596830274415884654 0.58757528544777259949 0.62316708688692667995
0.55940243267075873135 0.58792673680338070064 0.75242006413546114185
0.05117192887666833362 0.59814699136526783274 0.35902056666715687072
0.07928873656745083487 0.60217829031219549663 0.58420367388450888946
0.28760916548442366780 0.59568692209768603352 0.54471867106603877318
0.45444270001958686489 0.59140997164397113295 0.56616225410770137927
0.52833602310436422744 0.59295614608522972944 0.72411615573487664310
0.67944116075054084014 0.58966290363578655054 0.76866153055669161898
0.05045303251924263682 0.60733368622909589263 0.57038644361527612858
0.24049759468581172195 0.60212213111691137435 0.55774751878706319008
0.43545099572666928767 0.59615569558585479459 0.53789008390934500703
0.51209865120743547351 0.59761322284963835916 0.69771938623936025081
0.64366277207670241634 0.59555468970239144877 0.77096674634427497796
0.03398176247214108187 0.61230075985866605492 0.56209691222556190660
0.21584180286334425647 0.60768302691327968912 0.56148091514630038557
0.42223321210273095927 0.60109022236484843660 0.52482506585750321459
0.53458037801579139092 0.60217806580258015359 0.71512544696159185964
0.69331076609955677448 0.59847612922605863961 0.74847217580092750833
0.07062050383907587936 0.61644565291070685387 0.57647611202215065518
0.27041654550524252265 0.61068977940512059188 0.54951549670071975218
0.49911445914857832662 0.60646087657465796994 0.64590926955719785152
0.60923097755093302830 0.60569590056330979699 0.75065786154798408436
