ply
format ascii 1.0
comment Written with hapPLY (https://github.com/nmwsharp/happly)
element vertex 938
property float x
property float y
property float z
end_header
0.260470122 0.000571879791 0.556312263
0.495990872 -0.00153723697 0.728744566
0.25555262 0.0053719976 0.554984152
0.344739586 0.00982461777 0.688995838
0.491901368 0.00354701607 0.731963634
0.164092377 0.0109797185 0.490703255
0.288794637 0.00870599784 0.566708446
0.376344293 0.0129624847 0.697362363
0.520151198 0.00731142331 0.745265663
0.162413925 0.0152151631 0.484610915
0.286190361 0.0131061766 0.561977983
0.371038914 0.0178036001 0.696604371
0.515697002 0.0120229851 0.743256032
0.162976965 0.0173571743 0.45216164
0.268707454 0.018366117 0.556071937
0.352829605 0.0231651161 0.691766322
0.499140233 0.0171097685 0.735987484
0.686209798 0.00451047951 0.726023853
0.182579353 0.0260410737 0.524303138
0.291895479 0.0264404844 0.622939527
0.410681129 0.025201235 0.707647562
0.550206363 0.0203712322 0.761850178
0.750324607 0.0051796292 0.72693032
0.21397005 0.0297033153 0.538750589
0.309536517 0.0324749835 0.657610953
0.444964945 0.028334571 0.717839062
0.582059264 0.0239611305 0.775617898
0.24050115 0.0132443765 0.27210331
0.233817682 0.0332311466 0.541351557
0.321229249 0.0373721756 0.672205985
0.463326633 0.0320961215 0.722625256
0.600518465 0.0277312268 0.780261099
0.24361214 0.0180735104 0.276263893
0.239711791 0.037452668 0.541416168
0.325711757 0.0417980514 0.674346149
0.468759209 0.0363822207 0.723368406
0.606412649 0.0319579393 0.78032577
0.241559491 0.0221111458 0.264960051
0.232578978 0.0422011986 0.537581444
0.323860079 0.0456097946 0.662743092
0.461627066 0.0411178209 0.71953243
0.596503973 0.0371761397 0.780573726
0.79475224 0.0226482525 0.748410821
0.21962598 0.0470946729 0.530777276
0.316651165 0.0494980365 0.647489905
0.448212534 0.0460752212 0.713406861
0.582163274 0.0423028357 0.775810599
0.764217913 0.0305478182 0.767465889
0.204457298 0.0519443341 0.52146709
0.308515847 0.0531305075 0.627834499
0.431681275 0.051137723 0.706100464
0.56699425 0.0471531376 0.76650095
0.743032694 0.0364577286 0.767005682
0.185877576 0.0561387055 0.499879867
0.304102391 0.0549710132 0.585412264
0.404997945 0.0566652566 0.696431279
0.537315071 0.0531659462 0.761237681
0.718437076 0.0416993946 0.754267216
0.186083645 0.0560830012 0.433371335
0.283960879 0.0582226627 0.548828483
0.367649943 0.062732704 0.685153067
0.494757861 0.060079854 0.757620513
0.657596588 0.0516279191 0.777539611
0.251216441 0.0448113345 0.259850085
0.248287469 0.0632096604 0.523558319
0.334143728 0.0673157051 0.65669471
0.459061712 0.0650353953 0.732383132
0.606200337 0.0591684431 0.775392652
0.772979736 0.050152339 0.789517701
0.208085835 0.0685281381 0.499183148
0.3184506 0.0686142221 0.596274734
0.423753172 0.0695151463 0.700810969
0.550739825 0.0669311807 0.773457766
0.729538381 0.0560381114 0.769907951
0.277097464 0.0560513064 0.308432668
0.291753739 0.0713749006 0.546274602
0.382261664 0.074616015 0.672567785
0.491847426 0.0748871267 0.770806134
0.662150741 0.065336436 0.779749393
0.833548129 0.0556869656 0.787085116
0.252204984 0.0758119598 0.509410739
0.339916766 0.0794595703 0.639815271
0.447677284 0.0800139084 0.740737677
0.600409567 0.0732950866 0.775521874
0.759320736 0.0656772032 0.801220775
0.309645087 0.0654072613 0.335681856
0.329399526 0.0796961114 0.566022098
0.409252018 0.0846020132 0.707984805
0.533294141 0.082480073 0.784961641
0.720599234 0.0704087764 0.768905342
0.28756097 0.0676278323 0.278901786
0.286981523 0.0849779099 0.539142072
0.382093489 0.0873981044 0.658662856
0.479097962 0.0896540359 0.775403082
0.651367426 0.0799064264 0.781457067
0.811660588 0.0721576437 0.805125356
0.260457695 0.088937223 0.506181419
0.359731495 0.0906849727 0.61958158
0.442575246 0.095137313 0.757145703
0.594797194 0.0885231942 0.79268074
0.761559248 0.0798160434 0.806837082
0.257589579 0.0907840505 0.461491317
0.349931538 0.0935741737 0.585084379
0.424652785 0.099201262 0.734591305
0.563735366 0.0946765989 0.789449334
0.741125822 0.0843859315 0.787977457
0.316190451 0.0832880363 0.32641238
0.334583372 0.0973398611 0.558746338
0.404978156 0.103555977 0.714613974
0.525953352 0.101938985 0.796101451
0.712834358 0.0901603252 0.780673087
0.88097769 0.0813443139 0.792800188
0.313491881 0.102683507 0.552380979
0.39196229 0.107599735 0.696372211
0.505490005 0.107173808 0.788812101
0.679726422 0.0973420739 0.791977763
0.844176352 0.0891165435 0.809536517
0.291570008 0.107777297 0.541472614
0.37801972 0.111411043 0.673729122
0.481034338 0.112643555 0.781629443
0.649021626 0.103768885 0.793984532
0.809315503 0.0961996764 0.817655146
0.27427128 0.112171665 0.523766041
0.372616947 0.11397396 0.63852936
0.456578642 0.118102938 0.774446666
0.613691688 0.11088147 0.802792013
0.77953738 0.102498025 0.818299413
0.264833301 0.115387492 0.494500726
0.373811275 0.115578435 0.593629539
0.439131916 0.122456923 0.756956577
0.580694914 0.117627457 0.80816853
0.759929299 0.107256725 0.803988874
0.272044599 0.116123572 0.440753937
0.36298731 0.119008042 0.566402376
0.419495136 0.127156869 0.742687106
0.55711484 0.122964144 0.799698353
0.743095815 0.111600183 0.785598576
0.326161981 0.109167784 0.306508273
0.330621332 0.124929987 0.559323609
0.398004979 0.131388053 0.719614983
0.519418299 0.129707426 0.800458193
0.694083154 0.120015509 0.802997708
0.860404551 0.111642234 0.817807138
0.30185765 0.130672216 0.552711606
0.380506873 0.135394007 0.696436763
0.492284656 0.135183707 0.791448951
0.659770012 0.12658304 0.80454582
0.821470439 0.11892347 0.826150417
0.27910614 0.135518149 0.537259221
0.371890306 0.138076842 0.660198927
0.464713871 0.140715808 0.783082306
0.624066353 0.133342236 0.808138192
0.790396333 0.125022888 0.822935998
0.266165882 0.138558775 0.501616657
0.373750776 0.138920635 0.602793217
0.441471457 0.145218983 0.762586951
0.583029509 0.140517786 0.81380856
0.766357064 0.129716024 0.803613722
0.272196651 0.138830736 0.438079864
0.358961165 0.142238945 0.569870055
0.411660194 0.150705636 0.751750648
0.553217232 0.146029711 0.802974224
0.736765981 0.1352247 0.79245466
0.273071438 0.138465539 0.359070122
0.32113713 0.14857997 0.565052569
0.388366371 0.154857531 0.725567162
0.513282895 0.152664691 0.801259398
0.682749271 0.143941239 0.811446548
0.848167121 0.135836765 0.827587068
0.277784139 0.153935641 0.539546132
0.371945679 0.156227916 0.66045934
0.459080517 0.159570873 0.791704953
0.621812761 0.151855722 0.811794162
0.79232502 0.143037289 0.820444584
0.270092607 0.152352557 0.432786882
0.352219403 0.156372502 0.57139504
0.406373411 0.16445525 0.751133025
0.545300663 0.160238802 0.806224823
0.722161591 0.15052703 0.805540919
0.894992948 0.141402125 0.810782135
0.275138468 0.163076416 0.537844121
0.370220751 0.16520384 0.657402933
0.455994368 0.168665037 0.79064846
0.617775142 0.161175832 0.812138379
0.791999876 0.151881307 0.81533128
0.24926722 0.161357313 0.411707461
0.31796357 0.167262182 0.570061922
0.387549639 0.173016623 0.727107704
0.508087039 0.171470374 0.80923903
0.680964291 0.162423268 0.814414203
0.847788334 0.154224575 0.828489125
0.259625584 0.168822825 0.468607903
0.362572342 0.169794425 0.576602936
0.415355623 0.177900657 0.758353055
0.555155873 0.173626915 0.812162578
0.738534927 0.163102046 0.801897287
0.921102524 0.152677476 0.792824864
0.266110152 0.175770834 0.513912976
0.369981021 0.176600337 0.620549083
0.439066112 0.182320282 0.778329492
0.593000293 0.176081166 0.81135875
0.783444643 0.164570943 0.79070574
0.210789949 0.174523264 0.367678463
0.272525698 0.181322947 0.536265194
0.364819944 0.183785036 0.659922123
0.455126882 0.186446965 0.786499381
0.614691854 0.179444015 0.811250389
0.796345472 0.169223264 0.803523183
0.207784429 0.180398718 0.386592388
0.276923537 0.186116889 0.544293523
0.360999018 0.189690098 0.680033326
0.462714016 0.190740317 0.789837599
0.624181151 0.183507115 0.811792672
0.803525746 0.1736494 0.807461023
0.202098846 0.186297521 0.403683215
0.279568404 0.190812841 0.549135745
0.360654116 0.194761172 0.689270437
0.467622161 0.195069969 0.791351259
0.630066156 0.187738225 0.811870813
0.808953404 0.17798014 0.80821228
0.194295809 0.191799521 0.412360132
0.278245002 0.195380643 0.548285484
0.358891279 0.199356273 0.689065635
0.466297865 0.199589118 0.790501475
0.628742039 0.192300156 0.811021566
0.809487581 0.182315722 0.804631472
0.188807398 0.196971029 0.417633951
0.276921958 0.199949056 0.547434688
0.357128829 0.203950062 0.688860238
0.464973509 0.204108313 0.789651692
0.626954496 0.196925998 0.810853541
0.810021758 0.186653912 0.801050663
0.183781534 0.20207274 0.422227502
0.275135577 0.20458138 0.547265172
0.355803847 0.208484799 0.688011706
0.463211358 0.208685875 0.789445579
0.624703586 0.201616406 0.811366796
0.811019659 0.190930128 0.796788156
0.178392813 0.206884116 0.421591252
0.270670205 0.209247425 0.545271039
0.353550851 0.212823302 0.68276453
0.457895637 0.213412121 0.788700521
0.616994321 0.206723869 0.81414181
0.810729027 0.195050985 0.788656771
0.174292237 0.211850896 0.424824417
0.268420458 0.213943034 0.545782745
0.352663308 0.217302844 0.681272924
0.456133842 0.217986465 0.788493812
0.611499906 0.211857036 0.819423735
0.812191427 0.199269176 0.783711493
0.169366091 0.216595128 0.423507899
0.263955086 0.218607768 0.543788612
0.351722777 0.221478358 0.674096406
0.449942797 0.222820535 0.789035499
0.602862358 0.217083231 0.823563218
0.811902344 0.203397781 0.775578022
0.161399588 0.2210899 0.415134966
0.255985945 0.223087579 0.535419226
0.350675851 0.225056961 0.655550957
0.437082082 0.227886304 0.787856102
0.587374747 0.222525567 0.826246202
0.796988368 0.20886533 0.777419627
0.150032029 0.225059822 0.394472748
0.243689016 0.227168411 0.516122997
0.355884343 0.226756111 0.610518575
0.417498648 0.232879832 0.779270828
0.564726949 0.227944374 0.822166324
0.75781703 0.216635421 0.797634184
0.153907418 0.22566025 0.328348368
0.214653179 0.232207611 0.498383284
0.334263474 0.230787173 0.581877589
0.395514369 0.236960083 0.751164079
0.526114881 0.234148115 0.818502724
0.703291655 0.225144237 0.817368686
0.898452461 0.213496014 0.789791286
0.183402091 0.237218529 0.478137225
0.298376858 0.236421525 0.568446457
0.368663043 0.241362348 0.724449396
0.487012655 0.240088224 0.809796691
0.655817211 0.232344925 0.820973575
0.854230165 0.220303327 0.788615823
0.161783427 0.241260692 0.44949311
0.267949432 0.241642699 0.552752495
0.348427355 0.245253563 0.693772852
0.457152277 0.245164678 0.793267787
0.610090911 0.239616916 0.827771127
0.839571714 0.223452628 0.749740005
0.143307909 0.245214313 0.421991467
0.243909016 0.246331275 0.533431768
0.346828431 0.24713847 0.641463816
0.425158501 0.250789315 0.78563714
0.571069777 0.246144503 0.830470979
0.773813128 0.233767375 0.791751444
0.134260908 0.24888812 0.397917956
0.224195272 0.251411706 0.525039434
0.351687968 0.248940796 0.596945524
0.409950286 0.255237341 0.770620525
0.547548652 0.251628339 0.827673972
0.737875283 0.241033643 0.807211041
0.130108878 0.252564222 0.378174424
0.213548273 0.255929798 0.514843881
0.340114266 0.253585339 0.588112473
0.399661452 0.259675115 0.759897828
0.532010019 0.25671491 0.824668229
0.712855756 0.247472823 0.818145037
0.129764393 0.258297473 0.398937315
0.22062023 0.26066339 0.524703383
0.347186595 0.258322209 0.597971559
0.409051895 0.264048368 0.766347945
0.54358691 0.260843933 0.82790488
0.730595946 0.250810802 0.812321424
0.144353062 0.264596492 0.443850368
0.254222572 0.264449775 0.541664362
0.332893282 0.2681036 0.685337842
0.438559085 0.268301368 0.7893278
0.586215019 0.263575017 0.831599593
0.798523545 0.250110298 0.778821528
0.168111175 0.269993812 0.48104611
0.285401642 0.268871486 0.567950666
0.355018497 0.273504406 0.724930167
0.480366886 0.271400154 0.799990237
0.637272656 0.265505105 0.828664839
0.118603922 0.269524097 0.343565941
0.185328513 0.274974346 0.504805565
0.310968518 0.272764832 0.579435706
0.376926988 0.277809769 0.741792083
0.505774319 0.275309354 0.811709642
0.67118907 0.268306762 0.827875435
0.117941245 0.276219934 0.382084817
0.199970692 0.279657036 0.52082485
0.331643045 0.276670098 0.586587191
0.391728967 0.282380074 0.757574737
0.527135968 0.279144287 0.817851365
0.699750543 0.271190733 0.823432684
0.121915154 0.28229636 0.413787246
0.219252869 0.283738464 0.530023098
0.337005973 0.282550871 0.616247416
0.411779135 0.286354065 0.765643775
0.547622979 0.283087671 0.825278699
0.732490122 0.27354902 0.812848091
0.128312007 0.28773731 0.436164856
0.233999997 0.288094848 0.540125251
0.327417046 0.28982529 0.662120521
0.426526815 0.290661246 0.7757442
0.567180037 0.286878347 0.828311086
0.763017833 0.275900483 0.799752653
0.134349287 0.292906165 0.453308046
0.24746123 0.292307556 0.54635489
0.327241063 0.295538813 0.688392639
0.438158363 0.295050174 0.784662545
0.583183467 0.290811151 0.830804527
0.791334391 0.278244525 0.784145176
0.139099181 0.297926128 0.466580898
0.25917244 0.296438605 0.549394488
0.332695782 0.300353169 0.700627208
0.447548807 0.299424767 0.791112661
0.596070826 0.294835478 0.832115948
0.81558305 0.280819833 0.768755257
0.144776568 0.302822798 0.478490233
0.270419925 0.300631493 0.553115785
0.33902511 0.305064261 0.711576223
0.456938863 0.303800017 0.797563374
0.610269666 0.29872787 0.831500053
0.121724732 0.29801017 0.279073983
0.154988632 0.307447761 0.489496201
0.280632377 0.305259019 0.564121246
0.348907709 0.309640318 0.72306484
0.46988222 0.308047324 0.804553747
0.628317773 0.302372903 0.830987394
0.104660191 0.30580011 0.324414223
0.164843008 0.311813533 0.495265275
0.287237227 0.310034454 0.574667096
0.359172434 0.313923925 0.728230178
0.481021285 0.312239319 0.808434129
0.645135343 0.305861413 0.826520622
0.101412609 0.31213519 0.355206043
0.177376017 0.316145629 0.502859473
0.298842013 0.314483911 0.583625793
0.37124151 0.318265468 0.736505449
0.495713264 0.316310495 0.812854886
0.663704455 0.309440136 0.825241983
0.100948207 0.318107009 0.38190636
0.188051835 0.320709258 0.513183713
0.31509015 0.318356156 0.585758984
0.383747339 0.322562784 0.744138896
0.511716366 0.3202537 0.815348983
0.679023981 0.313429117 0.82874012
0.105481818 0.323743165 0.407022089
0.200012788 0.325408131 0.52738142
0.328444958 0.322887361 0.597907841
0.397620678 0.326960295 0.755524158
0.531709313 0.324039042 0.817741632
0.705846667 0.316298962 0.821092069
0.108944364 0.328614205 0.416424572
0.206259593 0.329921782 0.532690823
0.332370073 0.327690661 0.606630087
0.404332161 0.331370503 0.760149717
0.543228865 0.327983946 0.815301955
0.719526768 0.319913 0.815475285
0.1119418 0.333580256 0.426511347
0.212972835 0.334409833 0.537315249
0.336761266 0.332467645 0.614667773
0.411483824 0.335765123 0.764128983
0.551691413 0.332270652 0.817355275
0.731812596 0.323756337 0.811909199
0.113653712 0.338404596 0.432725161
0.217472345 0.338875502 0.539431214
0.337545246 0.337385386 0.622245252
0.415956527 0.340196013 0.766283631
0.558349669 0.336509824 0.816298783
0.74002564 0.327815205 0.808567464
0.114080817 0.343091041 0.435065001
0.219757363 0.343321383 0.53903985
0.33843714 0.341997594 0.623901606
0.417750984 0.344661325 0.766612589
0.561017811 0.340916544 0.815344334
0.743702471 0.332138807 0.806131124
0.114972085 0.347720146 0.436722666
0.222506881 0.347714365 0.537965775
0.340722144 0.346443444 0.623510242
0.419545084 0.349128515 0.766942084
0.564122796 0.345284224 0.813748121
0.746914506 0.336523592 0.804378152
0.114113323 0.352273941 0.435190201
0.222577453 0.352144986 0.535067141
0.341721714 0.350761831 0.619246125
0.419098139 0.353589177 0.764803529
0.562801301 0.3498559 0.812895238
0.744197547 0.341327757 0.805577517
0.113719113 0.356774867 0.432975024
0.221719399 0.356686473 0.533533454
0.341328144 0.355247915 0.617029727
0.418213636 0.358092695 0.763307929
0.56147933 0.35442695 0.812042892
0.741480589 0.346128672 0.806776881
0.114610709 0.361403972 0.434632093
0.223075464 0.361247778 0.534507632
0.342684209 0.359808534 0.618003845
0.420882106 0.362482578 0.762352765
0.565895557 0.358682185 0.808520198
0.745156765 0.350464523 0.804341793
0.113752015 0.365960389 0.433099687
0.22128877 0.36589694 0.534338892
0.340897501 0.364456445 0.617835104
0.420871973 0.36691004 0.759572506
0.565010786 0.363217503 0.807025552
0.742904305 0.355211258 0.804858446
0.113821946 0.370413005 0.430202425
0.21996659 0.370492637 0.53348738
0.338182151 0.369208097 0.619031131
0.420861512 0.371340096 0.756792843
0.565000415 0.367675453 0.804246187
0.741580427 0.359850347 0.804010212
0.114713185 0.375042051 0.43186003
0.220858127 0.3751055 0.535144269
0.338609904 0.373870611 0.6213696
0.423529655 0.375739068 0.755838335
0.568105161 0.37206322 0.802650809
0.745256305 0.364195287 0.80157572
0.115604773 0.379669875 0.433517069
0.221750408 0.379717082 0.536800027
0.340430468 0.378376484 0.621661067
0.427072167 0.380065173 0.753599167
0.570827365 0.37646687 0.801617026
0.749396324 0.368494481 0.798459172
0.118710503 0.384313554 0.437681973
0.225785047 0.384242713 0.539599359
0.346786588 0.382645577 0.62104851
0.433292955 0.384361446 0.753185749
0.5762555 0.38082549 0.802368104
0.760857165 0.372256577 0.790345252
0.121816181 0.388954669 0.441846818
0.23074837 0.388667822 0.541033864
0.35360685 0.38686958 0.619753897
0.439513773 0.388662279 0.752772391
0.581219077 0.38523829 0.803801894
0.770924926 0.376186311 0.784279108
0.125386357 0.393544197 0.445328981
0.235711336 0.393094867 0.542468905
0.356712878 0.391499043 0.623918056
0.446171433 0.392932534 0.751717329
0.586182773 0.389653027 0.805235744
0.781920671 0.380029082 0.776849329
0.129420757 0.398083448 0.448128998
0.241602987 0.397425294 0.542539179
0.35842678 0.39627409 0.630128086
0.45282948 0.397208005 0.75066179
0.59114641 0.394069672 0.806669593
0.791058779 0.384085327 0.77214992
0.135669544 0.402636677 0.453436255
0.251101196 0.401627898 0.543070912
0.363747954 0.400911689 0.636798322
0.462165445 0.401455581 0.751432538
0.599716604 0.398355991 0.808564842
0.832581818 0.384993285 0.725619435
0.139703885 0.407175243 0.456236273
0.256064206 0.406064004 0.544506133
0.368710905 0.40533936 0.638233423
0.47057122 0.405602843 0.747809589
0.606072426 0.402632892 0.80795294
0.861212432 0.387075365 0.692275286
0.143738225 0.41171518 0.459036291
0.260562688 0.410549074 0.546623945
0.373673886 0.409769684 0.639668465
0.481680036 0.409512132 0.740215123
0.613356531 0.406818926 0.805976927
0.106492497 0.409962863 0.268995017
0.1499874 0.416263849 0.464342982
0.268203974 0.414956033 0.549884856
0.380387515 0.414260268 0.644292414
0.49906823 0.412900865 0.729152083
0.624711037 0.41083923 0.803780913
0.1024222 0.415875107 0.295229346
0.157522306 0.420919955 0.47352165
0.280380487 0.419141769 0.552242517
0.392564029 0.418439537 0.646649957
0.509388804 0.417266995 0.734237015
0.640135944 0.414689869 0.801364839
0.102318272 0.42182222 0.32715705
0.17227143 0.425320446 0.483621657
0.297913522 0.423265249 0.558251619
0.406384796 0.422923774 0.658114076
0.521817446 0.421886474 0.747746766
0.662310302 0.418349504 0.80055362
0.10732013 0.427240908 0.351581544
0.187020198 0.429720968 0.49372223
0.312662333 0.427672267 0.568352282
0.422990203 0.427130938 0.665486157
0.535174727 0.426409304 0.759891808
0.688196242 0.421661347 0.794288576
0.114072882 0.432689518 0.379193932
0.205375895 0.433990479 0.504283726
0.328697562 0.432173669 0.58232367
0.439954102 0.431535721 0.678092778
0.552138627 0.430801094 0.77249825
0.717223942 0.424913198 0.789168477
0.123041414 0.438129365 0.409311146
0.229658008 0.437922925 0.5118981
0.347411424 0.43664071 0.598120213
0.458668292 0.435989827 0.693888605
0.57642138 0.434714168 0.780111313
0.755889654 0.427486688 0.77564764
0.141185462 0.442884207 0.431706339
0.252442598 0.44222033 0.527474105
0.36741209 0.44120872 0.617787004
0.480061412 0.440409601 0.711509049
0.605702519 0.438380301 0.786140919
0.120243609 0.441948414 0.263808221
0.163294852 0.447692633 0.459796816
0.281048268 0.446410447 0.546018898
0.394162118 0.445566237 0.639058352
0.513771474 0.444103658 0.722553194
0.647764504 0.44128865 0.784912884
0.112551458 0.449820489 0.341450602
0.19272314 0.452028722 0.482894003
0.319292307 0.449922234 0.556162417
0.422662735 0.449973106 0.663518369
0.547839701 0.447988898 0.738832295
0.692039609 0.44424665 0.786194682
0.122640714 0.456603765 0.410247028
0.232971236 0.455997705 0.507375836
0.353044778 0.454490036 0.590188622
0.458271503 0.454354078 0.694816649
0.585768282 0.452163845 0.766722143
0.764763653 0.445247114 0.762958348
0.159535661 0.461098611 0.445416898
0.274505764 0.460061073 0.535728395
0.388548225 0.459100753 0.627402842
0.503518343 0.458063215 0.717714369
0.637973905 0.455254972 0.779395342
0.116149604 0.46372509 0.345067084
0.201428995 0.465346605 0.47900331
0.326141834 0.463420451 0.55499953
0.428122401 0.463541806 0.664396524
0.557010353 0.461248696 0.734258294
0.702599168 0.457455456 0.779581428
0.132422686 0.470481992 0.422058433
0.249712572 0.469218969 0.508961201
0.368858129 0.467795074 0.593137503
0.472695351 0.467729509 0.699806154
0.606685758 0.464992285 0.762171149
0.127431124 0.470023215 0.271059066
0.178850248 0.474521726 0.454743385
0.30031532 0.472898275 0.535511792
0.407864124 0.472484976 0.636726677
0.523762524 0.471344292 0.725673914
0.66331929 0.468137205 0.779860795
0.0813382566 0.482530177 0.451201975
0.232954577 0.478299677 0.487670779
0.353491962 0.476753443 0.569802105
0.453619152 0.476970911 0.681921005
0.585289419 0.474459141 0.747695267
0.755924106 0.468587279 0.756221473
0.162346676 0.483977914 0.444600582
0.285667032 0.4821935 0.522643089
0.396927476 0.481438905 0.618404329
0.506332636 0.480845302 0.716891468
0.647279143 0.477554768 0.769037068
0.0585520715 0.492067456 0.438767254
0.214804068 0.487515688 0.468426585
0.338588268 0.48569268 0.545787632
0.43778941 0.485942036 0.659266233
0.563893139 0.483932465 0.733219504
0.719217479 0.479457885 0.764241755
0.092317529 0.496998668 0.490052104
0.263550848 0.49136889 0.497704357
0.382232904 0.489977092 0.582561493
0.481898874 0.490161896 0.695356607
0.618669689 0.487270713 0.753638148
0.030049229 0.501508355 0.417449743
0.178878009 0.497645646 0.458016485
0.310082465 0.495224267 0.524476111
0.416242421 0.494855583 0.627730191
0.529359221 0.493920654 0.720763624
0.675404966 0.490283102 0.765419066
0.0597721376 0.506544769 0.468912512
0.233294129 0.500857592 0.473204732
0.357541472 0.499008954 0.549885571
0.454426438 0.499380082 0.66676569
0.58377564 0.497119606 0.735951185
0.765531123 0.49062556 0.728144586
0.0987443626 0.510821462 0.506786525
0.283071578 0.504462123 0.495208174
0.39804399 0.503359795 0.585515141
0.496784925 0.503550589 0.69966799
0.636336029 0.500486016 0.753865838
0.031127939 0.515760899 0.436284274
0.187837273 0.511371374 0.465275466
0.325533152 0.508474231 0.522199273
0.429375917 0.508246779 0.628856719
0.54342097 0.507208705 0.720525861
0.695028782 0.503217936 0.757011652
0.059094917 0.520521045 0.48456192
0.243283525 0.514367104 0.473190874
0.36938557 0.512389898 0.547147274
0.464418083 0.512818277 0.666747153
0.59562093 0.510442257 0.733210027
0.0116434051 0.524164259 0.390197873
0.103309646 0.524498224 0.514736295
0.296306133 0.51774025 0.490427285
0.407106072 0.516940057 0.586863518
0.5077039 0.516918063 0.698287189
0.649108112 0.513776839 0.749763906
0.0370339938 0.529519916 0.448024839
0.192623422 0.525412202 0.478664964
0.341909498 0.521698773 0.51856339
0.441581011 0.521721601 0.631347358
0.559336424 0.52038759 0.717565536
0.720678151 0.515767395 0.739753783
0.0690749884 0.534205556 0.501835942
0.264553577 0.527548611 0.473886043
0.391118824 0.52555871 0.547162354
0.483372301 0.526108623 0.670843124
0.615501523 0.523700714 0.735945821
0.0155822868 0.538819551 0.427870154
0.135245889 0.537318885 0.511284709
0.321077824 0.531033397 0.497499406
0.426778466 0.530567229 0.601425707
0.535260797 0.529901803 0.701265812
0.686399281 0.5261181 0.738444269
0.0534176566 0.543390989 0.484689116
0.230534047 0.538145125 0.483714461
0.378425658 0.534625232 0.525663018
0.4697541 0.535181165 0.650701523
0.596782506 0.533172071 0.723297775
0.00997558609 0.547730327 0.413238615
0.114519887 0.54703337 0.518857658
0.317347497 0.539939106 0.480113924
0.425830811 0.539247692 0.579952061
0.527823806 0.539019227 0.689324319
0.672932804 0.535731018 0.735361099
0.0512113534 0.552494049 0.482341528
0.224178299 0.54765445 0.487464309
0.381803572 0.543518066 0.515116036
0.471279562 0.544137716 0.64287436
0.596452951 0.542270184 0.718195736
0.0117617417 0.556900382 0.416546822
0.120291099 0.555963337 0.516312718
0.326545805 0.548743963 0.472537071
0.434103131 0.548090994 0.573734939
0.535170019 0.547881365 0.68446666
0.684912741 0.54433018 0.72369796
0.0566615649 0.561590195 0.491784871
0.235490859 0.556537807 0.488299936
0.398676246 0.552113056 0.507786095
0.483519167 0.552976251 0.642348588
0.610546291 0.550993085 0.714947283
0.0197404027 0.566223502 0.433797508
0.149905652 0.564085186 0.501787663
0.341831088 0.557784796 0.47905907
0.449852139 0.557067275 0.579575241
0.554164886 0.55660677 0.68553859
0.735892236 0.550987363 0.677789688
0.0745851472 0.570574462 0.505947769
0.270513088 0.564533293 0.477349907
0.430916011 0.560372651 0.500924706
0.504634619 0.56189692 0.651825845
0.643713892 0.559136629 0.706721902
0.0361480527 0.575579107 0.473220021
0.200278223 0.57158947 0.491327792
0.380149871 0.56620878 0.486306906
0.474728525 0.566345394 0.606567383
0.589703143 0.565158784 0.696869552
0.017181227 0.57992363 0.423418939
0.138182476 0.578345299 0.504868865
0.350038052 0.570987105 0.452870548
0.463158637 0.569916129 0.545895875
0.554029107 0.570257902 0.671602368
0.0597434528 0.580197811 0.288996994
0.087088801 0.584118485 0.508001506
0.289693296 0.577805161 0.469599903
0.451949269 0.573645592 0.490455121
0.523815095 0.575149298 0.644075096
0.670774221 0.571946442 0.687398255
0.0590442941 0.589132428 0.494563431
0.243874401 0.584063828 0.482271284
0.433478653 0.578261137 0.462958694
0.508023262 0.579678655 0.6184026
0.635977507 0.577676594 0.689640164
0.0430249535 0.593963206 0.486501336
0.219895095 0.589472175 0.48590225
0.420623541 0.583060265 0.450252146
0.529888153 0.584118307 0.635331094
0.684263289 0.580517888 0.667762816
0.078658402 0.597994328 0.500486016
0.272972405 0.592396379 0.474265128
0.495395333 0.588283598 0.568014026
0.602490485 0.587539613 0.669888556
0.0264492929 0.603260517 0.464947432
0.191561133 0.599453688 0.481617957
0.492684186 0.591968596 0.517371178
0.579384625 0.592411578 0.649199665
0.0186750628 0.607772768 0.439021677
0.167684853 0.604690552 0.479337513
0.395758063 0.596927226 0.4035303
0.600990653 0.596631289 0.654990017
0.0377045237 0.612352729 0.477384984
0.212881491 0.608115733 0.479275644
0.54769814 0.601699889 0.603766799
0.0232441723 0.616149008 0.397931933
0.140073389 0.614808083 0.485509306
0.378341675 0.606694162 0.394733042
0.0236389693 0.621509373 0.440630674
0.179190516 0.618133545 0.47134015
0.615324259 0.609516621 0.614046931
0.0733866915 0.625602067 0.491471708
0.266931802 0.620414257 0.466387063
0.0376861766 0.630655408 0.466242552
0.211327657 0.626577497 0.470389754
0.0399235003 0.635214627 0.465923369
0.214544684 0.631112158 0.468632251
0.0425977111 0.639760852 0.464962691
0.218688414 0.635608435 0.465513915
0.0448350608 0.644326508 0.464643598
0.222832203 0.640111148 0.462395698
0.0497509986 0.648857892 0.466149598
0.231045187 0.644509137 0.459060431
0.0573455356 0.653354943 0.469480783
0.243790627 0.648802519 0.454828203
0.0676190555 0.657817602 0.474636555
0.261995196 0.652933478 0.448338002
0.0765255466 0.662294805 0.476041913
0.279374659 0.657035172 0.437301219
0.0889849067 0.666724443 0.477989078
0.307311177 0.660763562 0.416520655
0.101628266 0.671066046 0.479664564
0.342199564 0.664230347 0.385532498
0.115661971 0.675363243 0.479298741
0.0731131509 0.678515494 0.302889675
0.131085962 0.679609239 0.476891488
0.0547057129 0.684225798 0.350161642
0.147436753 0.683823407 0.47312358
0.0516938865 0.689190567 0.369067699
0.162035719 0.688053071 0.466169894
0.0546046942 0.693967104 0.385035038
0.179776162 0.692242086 0.460361928
0.0602960885 0.69863528 0.396919489
0.192882583 0.696629405 0.461358607
0.0673780963 0.703239381 0.406761825
0.205525503 0.701035857 0.463036031
0.073171787 0.707820237 0.412737548
0.224757701 0.705151558 0.449280381
0.0768520758 0.712361634 0.410300225
0.226584256 0.7097826 0.449565381
0.07713034 0.716840327 0.395583779
0.207399249 0.71496278 0.463426709
0.0752953216 0.72130537 0.372454613
0.19073534 0.719924629 0.462070078
0.0807160065 0.725389898 0.321398854
0.165108815 0.725015044 0.456598639
0.410127103 0.719475627 0.355964363
0.135052145 0.730129242 0.446115524
0.366802722 0.725090027 0.364962578
0.109369144 0.735006809 0.417695135
0.280415446 0.731921732 0.42566967
0.093258746 0.739479363 0.35794726
0.201748028 0.738288939 0.457767308
0.447955549 0.733194768 0.355396122
0.15422973 0.743647456 0.438374013
0.37948972 0.739122927 0.366756499
0.11664518 0.748642981 0.392881036
0.264057845 0.74636066 0.435555845
0.107325703 0.752909601 0.305891901
0.190330535 0.752358913 0.443125397
0.423656136 0.747897923 0.365428865
0.154294759 0.757441878 0.412631959
0.36508581 0.753624737 0.368019611
0.130769074 0.762227595 0.36377281
0.267987311 0.760269821 0.421415269
0.490418226 0.75652957 0.365478456
0.213778943 0.765850723 0.42335853
0.438240677 0.76200825 0.370196313
0.195667788 0.770715594 0.401096195
0.422484756 0.766981244 0.373264253
0.202228799 0.775236309 0.388673812
0.42751047 0.771682799 0.374612331
0.314458191 0.777973175 0.324762285
0.455011457 0.776109457 0.377511948
0.319916517 0.782729685 0.210337356
0.433898181 0.781131744 0.376929462
0.283163041 0.787960172 0.209684789
0.408966631 0.786216915 0.358924001
0.570881963 0.78432107 0.380321801
0.367687643 0.791616917 0.35915941
0.523571014 0.789710999 0.389409572
0.337110788 0.796822846 0.326413572
0.47462672 0.795122206 0.383623958
0.29837507 0.802496433 0.19051142
0.429469377 0.800549686 0.355010003
0.584000885 0.798824847 0.387247622
0.365234435 0.806135356 0.34864071
0.51645875 0.804401219 0.385731786
0.32977435 0.812022805 0.179150388
0.461295277 0.809948444 0.354534417
0.621249855 0.808276772 0.378814012
0.38238284 0.815585732 0.352436125
0.545670867 0.813930273 0.371823817
0.338699013 0.821824074 0.166236907
0.479452163 0.819532275 0.351095319
0.640888929 0.817940533 0.373201072
0.396970361 0.825111151 0.354234338
0.566293836 0.823556602 0.36476624
0.359881848 0.831598938 0.146846607
0.50493896 0.829076171 0.348411828
0.336262256 0.837255836 0.0693568587
0.430705249 0.834468663 0.362470269
0.605454624 0.833025634 0.365041047
0.390047342 0.839978874 0.315740466
0.545084894 0.838540196 0.347240776
0.341057509 0.846925974 0.0970430747
0.462320119 0.843976557 0.356549412
0.634610474 0.84264034 0.362731159
0.40293318 0.8494277 0.337305576
0.573254168 0.848134041 0.346378386
0.359160095 0.856628001 0.105199806
0.516975343 0.853481472 0.339841992
0.691735268 0.852272034 0.342401683
0.448798656 0.858605862 0.362276793
0.633913219 0.857521415 0.349642187
0.42753455 0.863768458 0.344647378
0.60575068 0.862693608 0.342137247
0.42416653 0.86891973 0.318024039
0.587102413 0.867764831 0.337937921
0.39153859 0.876705945 0.063815549
0.585790753 0.872695684 0.33707732
0.448536396 0.881862938 0.0176819284
0.589130223 0.877614558 0.335147351
0.422905445 0.886981428 0.0237314105
0.568015814 0.882643282 0.334566623
0.403033793 0.892185986 0.0155731635
0.543942153 0.887615979 0.338327825
0.399154395 0.897504807 -0.0102965152
0.517614901 0.892462909 0.351151139
0.40066433 0.902828932 -0.0383186303
0.503547609 0.8973158 0.357495517
0.70841372 0.897076726 0.31588909
0.505406201 0.902187169 0.357737988
0.710769534 0.902039647 0.31540361
0.512409389 0.907060087 0.356187224
0.415260851 0.917941809 -0.0450638272
0.532380998 0.911934316 0.352874607
0.426825464 0.922823071 -0.0360379964
0.565109253 0.916899443 0.342355758
0.455271423 0.927730262 -0.03451626
0.614472628 0.921884835 0.330451131
0.51695919 0.932739794 -0.0472369976
0.689775586 0.92691803 0.315019786
0.595428765 0.931682169 0.335556835
0.537800252 0.936452687 0.348261237
0.504396677 0.948173761 -0.0601727553
0.564991832 0.946220279 0.348836988
0.627613246 0.951472461 0.328993589
0.580158889 0.961075723 0.341249704
0.595652878 0.971024811 0.335968643
-0.281208277 -0.606919944 2.0052712
-0.606651843 1.35834336 1.42637444
1.79135776 0.992990077 1.12815332
-0.817344964 0.569926977 -0.256721318
-0.457010955 0.050873857 0.110047244
0.727573514 2.05857325 1.14440608
0.0293471329 2.03290033 0.247076839
1.20532942 -0.144299254 1.02423239
-0.471381277 1.73490477 1.70365095
-0.0706914887 0.314193308 0.987989187
1.51229477 -0.288179696 0.882607937
0.366297394 0.90658921 2.13026834
0.950295985 0.74324131 0.321147591
0.293282896 -0.157015726 0.669165432
-0.636053026 -0.60244894 -0.76048696
0.901246607 0.699535131 -0.159139246
1.00102687 0.547099113 0.49448359
1.30975807 0.719385982 1.63353848
-5.56775594e-05 0.210921004 -0.0729190037
-0.171237677 -1.10661638 0.441205621
-1.07577169 -0.497183233 0.998493493
0.274453223 -0.333101004 0.501580954
-1.03024781 -0.447058946 1.437361
0.547694206 1.52944994 0.994181335
-0.334223211 0.485912114 1.23543847
0.945531666 0.887805879 0.0888167173
1.73368132 -0.65539676 -0.286965311
1.94343972 1.16764319 0.191459134
-1.12619448 -0.251150072 1.57657433
-0.490307271 -0.950636864 0.689312935
-0.543184638 0.505928278 1.49111676
0.0492169037 -0.0126530975 0.786249936
0.639484406 0.618410766 0.834620655
-0.200249925 -0.113995031 2.07581449
1.45583355 0.69425863 0.00271438854
-0.0970695391 0.815173626 1.85358036
-0.175987765 -0.458849728 0.339619815
-0.114045247 -0.111400701 0.123718604
0.150752038 -0.571793914 1.44609463
0.0931723863 1.67806768 1.82076788
0.487697482 0.797204733 1.48391128
0.584666908 -0.522542715 1.64539289
0.376677394 1.00867426 -0.0876098648
0.823956907 -0.159491435 0.212345958
