ply
format ascii 1.0
comment Written with hapPLY (https://github.com/nmwsharp/happly)
element vertex 790
property float x
property float y
property float z
end_header
0.319419891 -0.00121029676 0.655376494
0.605435193 -0.00295606814 0.669692278
0.310978085 0.00472025666 0.652912557
0.45035404 0.00910185371 0.72483331
0.610548437 -0.00136916549 0.669196427
0.196126953 -0.00161871419 0.661839068
0.35373497 0.0099101942 0.637635231
0.496423036 0.020611966 0.708009422
0.650050402 0.0146446452 0.677582681
0.199234962 0.0129225887 0.649495304
0.349485308 0.0237643737 0.634064317
0.493280739 0.0217507184 0.706944644
0.630693078 0.0113459118 0.662293971
0.183145463 0.0149693936 0.623437166
0.33058998 0.0294059683 0.639017463
0.473034918 0.0178745352 0.706793725
0.617713153 0.0237528197 0.673604488
0.766896009 0.00550777232 0.558374405
0.235667959 0.0241864063 0.670446396
0.389174253 0.027301833 0.692893207
0.531232059 0.0269386508 0.695130408
0.670790672 0.0234964658 0.653743684
0.825162768 0.00887229387 0.520139217
0.276567668 0.0246250499 0.673493385
0.421062589 0.0387221798 0.707760155
0.567313075 0.0291982256 0.688708067
0.713629484 0.0258490294 0.655920148
0.149442479 0.0182953924 0.426600397
0.295826018 0.0307842512 0.660412729
0.439267308 0.034971375 0.713855565
0.580538213 0.0434231609 0.669901788
0.722957492 0.0316371135 0.651382923
0.153447539 0.0153001985 0.424542934
0.296762764 0.0365431607 0.653649926
0.441495329 0.0431376025 0.714717686
0.587702572 0.0457209647 0.680572689
0.733254075 0.0274840612 0.652036548
0.143702641 0.0185997635 0.424511015
0.285687745 0.0577914268 0.661537647
0.435597122 0.0367620103 0.703160942
0.581237018 0.0370736942 0.670797348
0.726310909 0.0411577001 0.648979366
0.867077172 0.0236450769 0.509636164
0.27354905 0.0460748039 0.657182574
0.421762347 0.0407036729 0.703533173
0.56055975 0.0544330217 0.680307567
0.711742461 0.0461221188 0.659254491
0.85673213 0.0355261974 0.544914186
0.257325888 0.0490159839 0.65478611
0.399776638 0.0540575907 0.694164515
0.534764647 0.0492286198 0.685947537
0.696080685 0.0502585098 0.65584141
0.837993503 0.0432352088 0.554551661
0.226355508 0.0571268424 0.650689781
0.379298896 0.0609991401 0.657447577
0.520201206 0.0583950616 0.688618839
0.666667342 0.0551659949 0.666937649
0.811908245 0.0484927185 0.561914086
0.194960207 0.0512342229 0.59608227
0.318790138 0.0617112294 0.639989793
0.467623919 0.0675312355 0.710606992
0.634072721 0.0678560361 0.697193503
0.756389678 0.0622575395 0.621038318
0.149678484 0.0448832251 0.410645396
0.2941311 0.0629333854 0.63407129
0.437009841 0.068707265 0.697865248
0.602272153 0.0686495826 0.689724565
0.727037549 0.0610682182 0.640514433
0.877473056 0.0523090176 0.560404718
0.24309133 0.0727971122 0.630646706
0.389731497 0.0712011009 0.64746964
0.539170504 0.0701587424 0.681217253
0.686419487 0.075536333 0.66580385
0.841962159 0.0512726344 0.573653817
0.190574571 0.0418251753 0.447798312
0.342386961 0.0709845647 0.62785691
0.487731576 0.0696224868 0.679974914
0.634319603 0.0773872733 0.699837208
0.788884223 0.0808199644 0.618839979
0.927281678 0.060754206 0.522833705
0.286980748 0.0764180943 0.620316803
0.433735192 0.0828728899 0.678478003
0.578579903 0.0804124102 0.700792849
0.726563275 0.0770405903 0.641192019
0.872192144 0.0700285882 0.575312614
0.239289477 0.0622965321 0.444335699
0.388786077 0.0682671666 0.633637726
0.530346096 0.0869703367 0.695620418
0.675192952 0.0788133964 0.69089824
0.820995629 0.0757887214 0.570843577
0.187421992 0.0621373095 0.407032609
0.340435147 0.0971471369 0.627209723
0.477709115 0.0835604891 0.673561633
0.618181646 0.103518389 0.716429114
0.769940853 0.0778018981 0.609254658
0.917681873 0.0806761459 0.548539221
0.31313026 0.0880038664 0.622412443
0.441106856 0.0888709053 0.650663674
0.592062831 0.117103294 0.723787189
0.729999781 0.0920181796 0.660014749
0.872070312 0.0873803496 0.574890673
0.275666207 0.0903171599 0.577414095
0.414828032 0.0870918036 0.634201109
0.556787789 0.102432713 0.708853602
0.708228946 0.0963635594 0.674827814
0.849321783 0.0888992473 0.574597895
0.235422283 0.0793457925 0.439886957
0.381981522 0.0861481428 0.615090251
0.529604793 0.103058815 0.707699001
0.673745871 0.108453602 0.698788106
0.818121314 0.0967463106 0.567163169
0.968738854 0.0860497952 0.495672256
0.367117584 0.0993453562 0.620809436
0.499354213 0.108988918 0.706670403
0.661316097 0.102912292 0.713981092
0.801942706 0.101014324 0.613102615
0.958808661 0.0864484534 0.526026845
0.344760954 0.10755422 0.633960426
0.489529401 0.113703206 0.687915802
0.633808017 0.126148939 0.711256206
0.783771455 0.104590818 0.632924139
0.927442491 0.0992153585 0.559398413
0.312072337 0.106417239 0.619663179
0.454254299 0.113809876 0.659702003
0.61364305 0.119906701 0.729933441
0.765362442 0.123947345 0.648048937
0.895863712 0.106150061 0.580118537
0.287808806 0.112985596 0.598376751
0.443054885 0.113945626 0.625493288
0.574141145 0.127208576 0.728710949
0.72758466 0.122893952 0.683528423
0.875639796 0.0979947001 0.582023382
0.266510785 0.115080155 0.552461267
0.406618834 0.124129802 0.590430081
0.554742098 0.132358804 0.719746828
0.701732874 0.13177377 0.696388006
0.842974067 0.114245385 0.57032299
0.238629192 0.10712488 0.414713979
0.378683418 0.119754635 0.624619842
0.53489387 0.140415937 0.711299598
0.672786295 0.124516509 0.719441473
0.823634803 0.12165799 0.607016623
0.968726099 0.119080417 0.532904506
0.348585218 0.128406927 0.629478872
0.492070228 0.133661464 0.688073218
0.638911009 0.139284104 0.71897465
0.78938818 0.128722489 0.632975519
0.941181719 0.124967836 0.561439931
0.32221216 0.136028096 0.627323031
0.468095034 0.137938753 0.676634371
0.609660387 0.162665859 0.72630626
0.768806696 0.137739092 0.657680809
0.921517074 0.131737292 0.581297457
0.282634526 0.150468141 0.591498137
0.440938801 0.14134261 0.628822207
0.586369753 0.147930577 0.722417593
0.733074784 0.14428997 0.681366444
0.873594463 0.131374404 0.568966448
0.267183453 0.14447245 0.550974607
0.417338073 0.15102756 0.61407721
0.562001228 0.140630007 0.730383933
0.705562174 0.150294125 0.694684327
0.855291367 0.126420096 0.57853967
0.233453184 0.140548229 0.481250703
0.381819427 0.156556904 0.630973816
0.521631837 0.156663373 0.720504642
0.684576094 0.163133413 0.722098768
0.813739419 0.147821859 0.626154363
0.953685343 0.143824935 0.559474528
0.326367825 0.153576493 0.631563604
0.471325845 0.157579318 0.677008867
0.6020298 0.162426963 0.751331031
0.776784241 0.15243727 0.651564479
0.922067523 0.149283126 0.575523138
0.266803294 0.148669034 0.545741558
0.408668101 0.161826178 0.614135504
0.55104506 0.171381161 0.731548667
0.696320057 0.167599395 0.699243963
0.840705931 0.144301653 0.58428818
0.986062407 0.147064075 0.50400728
0.321228117 0.163152426 0.632424772
0.469175905 0.170815617 0.670140982
0.621103466 0.174520046 0.74103862
0.764447272 0.164182186 0.665595412
0.910115898 0.157067254 0.555971801
0.232548684 0.158013448 0.539406121
0.372222841 0.176253408 0.621292531
0.522526145 0.174428672 0.727552056
0.661966681 0.168314174 0.736187398
0.811476469 0.162693277 0.629514873
0.959960282 0.160866901 0.545668125
0.271445304 0.169968933 0.581588984
0.418012172 0.170960113 0.626234651
0.561034381 0.177988276 0.733551562
0.715153754 0.173400164 0.713195145
0.859487653 0.166792616 0.584410369
1.00194645 0.151393548 0.480688602
0.293319583 0.172586754 0.604404151
0.452851862 0.179964498 0.640399158
0.595151484 0.188580453 0.736749411
0.737645626 0.179970756 0.676460326
0.883498073 0.164506435 0.562522113
0.166119471 0.183861792 0.53582257
0.301128894 0.194030508 0.614291608
0.465323329 0.185000986 0.679192245
0.609504461 0.186164916 0.736416161
0.755567431 0.184620246 0.665271342
0.913239121 0.160119534 0.553462386
0.185688332 0.187656954 0.550665379
0.327146381 0.185358003 0.63377434
0.477219135 0.187135577 0.691454947
0.619111598 0.196199492 0.731925189
0.765034854 0.187283665 0.660553098
0.909215093 0.186259881 0.554094315
0.189827174 0.179174781 0.558806479
0.330947727 0.200895578 0.642115474
0.475121409 0.19437319 0.690575719
0.620548904 0.195019633 0.733927667
0.765815198 0.190517545 0.646216571
0.920752645 0.176141322 0.55059284
0.18446748 0.189168736 0.571614623
0.330211788 0.193454266 0.637531161
0.476696968 0.194420353 0.711238503
0.621725202 0.205071822 0.729422331
0.774607241 0.194716096 0.653459728
0.924879014 0.194521949 0.541032016
0.180507213 0.192397892 0.578091681
0.3400186 0.192274615 0.636391163
0.472662747 0.204641208 0.705863416
0.61537385 0.206952825 0.729586661
0.765674472 0.20852001 0.661530077
0.901233792 0.196412623 0.542016149
0.179506525 0.194517255 0.596615434
0.3361651 0.194755927 0.643659055
0.474246591 0.20599173 0.704985917
0.620263517 0.210886657 0.731439412
0.762331188 0.220795512 0.654808939
0.905127645 0.199001849 0.540089369
0.173120856 0.200806424 0.583567083
0.321903557 0.208268419 0.638948321
0.468399405 0.214258775 0.704890311
0.609651327 0.21231021 0.731238961
0.755010009 0.207794592 0.66616261
0.90669477 0.193618342 0.539007604
0.174789265 0.204547659 0.578561008
0.322057277 0.218886182 0.643310249
0.465988606 0.218382463 0.704588175
0.606436431 0.230674654 0.734537125
0.759315073 0.213445678 0.668173492
0.901093721 0.199933603 0.537613809
0.162717968 0.215681344 0.600563765
0.30794102 0.22075206 0.639454782
0.450480968 0.218839034 0.700338483
0.608172119 0.226925835 0.735318661
0.752026916 0.226700187 0.684691608
0.898875594 0.207177401 0.520697176
0.159456924 0.219917044 0.591947615
0.304712743 0.222198337 0.637974441
0.446418822 0.211693197 0.692327023
0.590434074 0.210824192 0.741840065
0.742374539 0.225440025 0.691117406
0.891985178 0.220626995 0.535972774
0.147319868 0.228518188 0.598473489
0.267354727 0.230411336 0.634604633
0.429934412 0.230681211 0.646856189
0.573167741 0.236480102 0.750578463
0.72243315 0.2293493 0.699413955
0.86995095 0.2190945 0.56812191
0.0912012309 0.228047013 0.51663506
0.249836549 0.230842784 0.630579352
0.395273328 0.2313115 0.631872773
0.539901316 0.25144735 0.749923587
0.697563231 0.240778729 0.733317256
0.837294698 0.233549774 0.612386584
0.9724648 0.220886648 0.489189953
0.212630749 0.23464857 0.635242999
0.358767956 0.237231642 0.640971303
0.507123947 0.240575671 0.734636009
0.662051618 0.244043991 0.731355071
0.788162112 0.249705791 0.644924223
0.945774913 0.225962862 0.503184438
0.171796501 0.238135025 0.613740027
0.329042166 0.238456428 0.638123155
0.456498265 0.250582665 0.715303421
0.618269801 0.246758386 0.740731299
0.756099105 0.238736466 0.694034219
0.919131875 0.222038433 0.500578582
0.147380605 0.242128536 0.607781708
0.289676011 0.246707097 0.646040618
0.434748948 0.254098147 0.665215731
0.585404158 0.256487131 0.765921235
0.731113195 0.242218718 0.70832175
0.886754036 0.237774879 0.554412067
0.130761683 0.255975991 0.597606122
0.279285789 0.252660722 0.633967876
0.419249743 0.249955818 0.639155686
0.571212947 0.25669241 0.753957808
0.708823621 0.254431844 0.716440082
0.859765053 0.259209901 0.591472566
0.108527534 0.250264406 0.57801342
0.258363128 0.254369229 0.644842088
0.384782195 0.250956535 0.631126165
0.549375534 0.250276834 0.738033593
0.697026491 0.260499388 0.721664786
0.847481072 0.242692962 0.612077475
0.118572161 0.251751214 0.611211419
0.278619111 0.26352489 0.64363879
0.416804641 0.257342517 0.629700005
0.561532438 0.27012983 0.742055535
0.69747448 0.25676471 0.712761402
0.851847768 0.25625965 0.600006163
0.161239609 0.263587713 0.631802022
0.302440852 0.261131287 0.641164601
0.449368387 0.271020681 0.721034944
0.597860515 0.277981341 0.738562703
0.744487047 0.271928728 0.699940681
0.883379519 0.249910995 0.521410823
0.215217993 0.256106764 0.643308997
0.343460172 0.266120642 0.642278671
0.489233285 0.282748133 0.73557663
0.646033704 0.278787583 0.735402703
0.776452661 0.281703562 0.660411179
0.0814549848 0.264836222 0.555601954
0.230606198 0.28259325 0.639639676
0.374496222 0.272478521 0.643027186
0.520132899 0.284090042 0.742383242
0.655549407 0.274070889 0.725892425
0.813121319 0.270483106 0.642714024
0.0835748687 0.280463666 0.586573243
0.231087863 0.289460033 0.656153798
0.395724893 0.277123541 0.637862623
0.540136755 0.287527025 0.746446848
0.69101572 0.281255275 0.716302633
0.830084622 0.273764044 0.61785233
0.141631454 0.272384286 0.630205154
0.27068004 0.276881039 0.640649974
0.418610185 0.28636077 0.661595047
0.567628741 0.288977951 0.742088675
0.708382189 0.288196385 0.7112692
0.850072622 0.271036595 0.604366779
0.145265728 0.281753987 0.618996143
0.290674865 0.291557282 0.658192217
0.434095025 0.291650981 0.699524403
0.561413109 0.29409951 0.737319827
0.729072869 0.294963032 0.721049428
0.875657499 0.283155292 0.569059551
0.155640706 0.288612932 0.636521518
0.303060859 0.294463634 0.6537925
0.451572031 0.288309157 0.731264114
0.596604407 0.298504531 0.742367327
0.745691359 0.289602011 0.701871455
0.884809136 0.284851402 0.544026196
0.164102972 0.280879438 0.633369267
0.315339178 0.295154452 0.64623183
0.466242075 0.316122293 0.733353555
0.602304518 0.301442087 0.733998477
0.752125859 0.299256623 0.693139374
0.907493949 0.278082043 0.529514909
0.178887159 0.297648013 0.655900121
0.329694927 0.29278481 0.643234313
0.469852328 0.300608873 0.735382617
0.619729578 0.305265605 0.729552448
0.762110054 0.309131444 0.682908237
0.0463966914 0.295506567 0.50112313
0.189378157 0.293683708 0.648005188
0.342756689 0.290347517 0.652262986
0.497652769 0.313794494 0.74493283
0.629464686 0.3213301 0.747290134
0.776515365 0.307619929 0.675075829
0.0574512407 0.314277917 0.550428331
0.203812212 0.309056997 0.655555546
0.353650153 0.309370816 0.652197957
0.500176847 0.315673649 0.740372241
0.644472659 0.315119237 0.736001313
0.787590921 0.31019026 0.655318499
0.0765267685 0.316670954 0.577055514
0.220661044 0.312021434 0.655291557
0.371183723 0.296189815 0.654555142
0.512807846 0.321626633 0.738796949
0.658924639 0.31946525 0.732829869
0.792866528 0.309383929 0.640734553
0.0904789791 0.318983555 0.59916532
0.230887219 0.310978115 0.657572031
0.390060246 0.311117262 0.651545227
0.524460793 0.330771387 0.738645971
0.673003137 0.324238867 0.724167645
0.818570614 0.319400996 0.639765918
0.112251617 0.32129845 0.615740657
0.247371122 0.325945258 0.66400063
0.414509326 0.332048625 0.640720904
0.555227399 0.321500421 0.749498069
0.696760654 0.329460353 0.712527454
0.841635764 0.324723184 0.623874962
0.11515341 0.325522363 0.621548414
0.270411253 0.326079279 0.6549775
0.411517799 0.332575291 0.655609608
0.55742377 0.337432891 0.737337649
0.702517211 0.335988551 0.713896632
0.846915245 0.326427102 0.600768089
0.12516357 0.339178622 0.627843738
0.269852787 0.334223032 0.661989331
0.410181344 0.326081663 0.663047194
0.560937464 0.338772327 0.738300264
0.697912931 0.343323439 0.705198526
0.850751758 0.327221066 0.600625932
0.13207452 0.333547086 0.643340886
0.26827991 0.328705698 0.668831646
0.421153545 0.344204724 0.661358178
0.574984074 0.352752358 0.738865495
0.716425836 0.339126647 0.697791338
0.858694851 0.33218357 0.591593146
0.129730001 0.34345898 0.635927558
0.278012633 0.339249551 0.657628596
0.424843967 0.34883216 0.675771296
0.576820314 0.352339774 0.742234111
0.714322567 0.348191351 0.697131217
0.861749947 0.338030308 0.595388293
0.109526269 0.338840216 0.644502938
0.276110232 0.351550728 0.651988566
0.42571339 0.355679721 0.665480554
0.568307221 0.35808304 0.74578464
0.713499308 0.34745881 0.700741172
0.861042619 0.340815127 0.582481682
0.125979662 0.340768576 0.628182054
0.275529057 0.351074964 0.653901637
0.416725427 0.347512156 0.662737906
0.562406421 0.358834475 0.741913557
0.71536994 0.3462286 0.695679009
0.859351516 0.343944311 0.586767256
0.126549944 0.349552304 0.637279928
0.275565922 0.356074661 0.652008653
0.414457977 0.359336674 0.651913881
0.58477515 0.366456956 0.725977004
0.711966038 0.35903129 0.693383038
0.861801386 0.354906589 0.593220949
0.115672275 0.359289676 0.639105022
0.275415123 0.360006928 0.654687524
0.429334432 0.362698615 0.655559897
0.571234941 0.366856396 0.718795657
0.721580565 0.36138621 0.67927283
0.865271389 0.343914777 0.576549888
0.125546128 0.363827497 0.632314324
0.294040471 0.355481684 0.652740121
0.4205257 0.36122036 0.654669404
0.565570712 0.369999439 0.729123473
0.700109243 0.362988651 0.680514634
0.858007848 0.34746632 0.588979125
0.128532603 0.373965263 0.63037765
0.276860595 0.365681946 0.651963472
0.413160533 0.372073382 0.667925239
0.566177487 0.372796804 0.730698287
0.712767482 0.374859363 0.684785366
0.865669549 0.363591701 0.591093004
0.134803519 0.36568588 0.629659712
0.271890819 0.374887675 0.656278312
0.421078891 0.381078869 0.657805562
0.562916338 0.385217071 0.72996062
0.71142149 0.375870168 0.681895435
0.851836145 0.375814736 0.581208706
0.130116031 0.376731724 0.626762986
0.274712324 0.378948212 0.655668557
0.422036171 0.380401284 0.649515569
0.567009807 0.382989526 0.716718853
0.719830215 0.379981399 0.682525992
0.869871676 0.378868371 0.576680303
0.128213257 0.382957548 0.629885435
0.280392528 0.383224458 0.657225013
0.430873066 0.376543641 0.658694386
0.567743719 0.382329196 0.730401993
0.722012877 0.382172167 0.676622033
0.86079061 0.371875107 0.562154293
0.142713219 0.386127472 0.634267986
0.297302812 0.391680717 0.642254591
0.43329531 0.386216223 0.651110411
0.580906808 0.397741884 0.717249453
0.723014057 0.389297783 0.674651086
0.865299284 0.372035921 0.550956905
0.142782509 0.388961464 0.637814939
0.302615762 0.390854061 0.652781725
0.447411925 0.393191934 0.652295589
0.582151592 0.389306486 0.704898238
0.730743885 0.387233377 0.675301373
0.868958414 0.383855432 0.537910938
0.149102673 0.398023069 0.638274908
0.301979631 0.384821057 0.648835957
0.434969097 0.400437683 0.657108545
0.588135779 0.401174933 0.70330584
0.728095531 0.396316737 0.675646961
0.880029261 0.389354497 0.537029624
0.160177067 0.401917011 0.626855373
0.303144395 0.401044995 0.645916581
0.456855714 0.407117724 0.658533275
0.600824594 0.394575119 0.697641432
0.742284954 0.404162228 0.671036661
0.884980917 0.380625397 0.470007718
0.159505501 0.401949704 0.641975224
0.308219075 0.398018062 0.634566247
0.454300433 0.405464739 0.659360766
0.597817123 0.406703651 0.688279808
0.746523917 0.406431854 0.663847923
0.893894732 0.393587112 0.427542567
0.169045642 0.40558368 0.6330266
0.313521773 0.41331169 0.639094532
0.45170033 0.406177968 0.666229606
0.607203782 0.408563673 0.67878437
0.750814795 0.412367851 0.659884393
0.0228208397 0.400347203 0.497915268
0.167840898 0.416128486 0.648342371
0.328557611 0.412684768 0.626415431
0.466624618 0.414077759 0.646398604
0.613956094 0.421890676 0.655789554
0.759709895 0.415322781 0.654369891
0.0402774699 0.411494792 0.523828745
0.190467045 0.431623757 0.644914389
0.328869611 0.422323376 0.642556667
0.475051403 0.418651998 0.643191397
0.630752683 0.433688164 0.647879839
0.768737853 0.418161094 0.639892638
0.0537986867 0.414659739 0.54870069
0.207455501 0.415389329 0.639492095
0.356349707 0.417991132 0.64291358
0.500121057 0.419082433 0.65209794
0.650327325 0.434518158 0.661706805
0.788739383 0.422866911 0.628539741
0.224226683 0.420011491 0.638992786
0.368583202 0.427233607 0.632384241
0.514300525 0.4282341 0.649250329
0.663490236 0.431024075 0.664889514
0.805755317 0.424050242 0.603636622
0.245119959 0.427763313 0.641957879
0.388437688 0.432449877 0.633902371
0.539481342 0.430790037 0.649698913
0.681706905 0.433650166 0.662123501
0.820395112 0.423059732 0.587293684
0.267131031 0.436779767 0.631683409
0.413443774 0.436233014 0.634123504
0.555713117 0.438198149 0.650304973
0.695081592 0.43985346 0.648102701
0.851811647 0.429416984 0.553529382
0.293728471 0.439308196 0.632804215
0.439737111 0.446972072 0.639687598
0.582984209 0.437186837 0.661940813
0.732980609 0.454530597 0.641462803
0.0319284946 0.44027257 0.488418728
0.184484422 0.437265962 0.612077117
0.328275979 0.443603814 0.632336617
0.472095191 0.452171326 0.642316461
0.620894492 0.444562078 0.644242406
0.766613245 0.445194393 0.621858776
0.211146757 0.456807375 0.632743061
0.363494903 0.444053262 0.620534837
0.51684165 0.450945377 0.646513343
0.647793233 0.439511865 0.639942586
0.800235927 0.45673871 0.59645164
0.272013783 0.45639503 0.62806946
0.417014509 0.454797745 0.628031909
0.546585798 0.459515095 0.665692985
0.698452473 0.453971356 0.630831957
0.861471534 0.443625689 0.537233055
0.314591646 0.469848603 0.629353702
0.458420128 0.458455861 0.643223643
0.610896409 0.46326226 0.64753437
0.752624631 0.454648525 0.625891268
0.222189113 0.468103796 0.621165574
0.372012585 0.464804232 0.614642978
0.516994655 0.464983523 0.645649612
0.669488907 0.470537692 0.631292641
0.813616931 0.461253673 0.59106189
0.27966699 0.470264524 0.611514986
0.422379881 0.46406278 0.620131791
0.570967078 0.471612811 0.653792441
0.719651222 0.468479246 0.625853121
0.0386689417 0.468703777 0.495046973
0.205804855 0.466813028 0.629893184
0.346455783 0.474953353 0.607698917
0.489947855 0.462149441 0.628404617
0.640575647 0.467808604 0.642594695
0.772809505 0.470967829 0.606856823
0.268073231 0.486869335 0.607596099
0.402042806 0.475658923 0.608996093
0.544801593 0.492411256 0.63518393
0.693775952 0.478028476 0.631550789
0.82868284 0.483124673 0.555268943
0.337966979 0.485545516 0.608984649
0.479177564 0.493263602 0.624185562
0.608142614 0.482595623 0.645684004
0.766227365 0.493263513 0.612410843
0.2390147 0.491444975 0.605042636
0.375409901 0.482229888 0.597134829
0.52127862 0.494149327 0.639127076
0.673875868 0.484143555 0.627441823
0.805581152 0.49308908 0.559742332
0.290083855 0.495065451 0.603771627
0.432665735 0.490120649 0.603664398
0.577300727 0.489036262 0.639030993
0.725361049 0.49049437 0.610321879
0.325463414 0.505685329 0.602996171
0.486571372 0.496089786 0.62579143
0.625076473 0.500501692 0.641509891
0.780679584 0.488213092 0.585481822
0.243732318 0.49743858 0.596440792
0.395879298 0.506166697 0.580712438
0.539179146 0.498982728 0.632216871
0.687735677 0.500532746 0.616342843
0.824981332 0.492234558 0.529744565
0.298261851 0.509087026 0.593753278
0.455075145 0.486489505 0.597116172
0.59890306 0.500597179 0.632823646
0.73875469 0.503905773 0.602052987
0.339753985 0.526887 0.588427365
0.503330946 0.512627423 0.616748035
0.634531736 0.4970586 0.620584369
0.793070495 0.502230406 0.582466006
0.258914679 0.509928823 0.588954806
0.406250328 0.511028409 0.582837284
0.549613714 0.512665927 0.625902474
0.694146276 0.514066339 0.607469082
0.298549771 0.510385633 0.570963085
0.447684228 0.517092764 0.595484793
0.60417521 0.51352787 0.628502369
0.748617351 0.521645665 0.601016223
0.368196815 0.516577601 0.571742952
0.509038627 0.523956537 0.610901117
0.655889571 0.518997192 0.615229368
0.800419271 0.519375741 0.542834878
0.278293043 0.527603447 0.584541857
0.424285591 0.520694017 0.568616092
0.562605679 0.527641773 0.618720174
0.735506654 0.517829716 0.609263122
0.355586827 0.538692534 0.561344266
0.480370462 0.532234073 0.59471184
0.626384199 0.53215903 0.615490317
0.768683314 0.532675743 0.56585294
0.256594628 0.523796499 0.610206127
0.387709558 0.542835772 0.551476955
0.540032089 0.535413504 0.61085099
0.691865027 0.539114177 0.604157567
0.319293439 0.537920952 0.554614902
0.471266568 0.537675738 0.571897089
0.609037161 0.543683171 0.60908854
0.760205686 0.540948093 0.572263122
0.244321555 0.558000028 0.610541284
0.369610667 0.528222024 0.551510334
0.541017771 0.543321431 0.606137514
0.689416826 0.541586697 0.602501333
0.321403116 0.550551891 0.550641656
0.466843486 0.55692786 0.552362561
0.614834011 0.553885221 0.605544567
0.762984335 0.549185455 0.551695168
0.263609737 0.553933442 0.603730083
0.40920037 0.545931756 0.531414986
0.555678427 0.557368875 0.607399762
0.695848227 0.553832233 0.58199966
0.345443308 0.555816174 0.538327157
0.483695269 0.561303735 0.57193166
0.63093549 0.546969533 0.597065628
0.771892846 0.552728236 0.498570472
0.280335516 0.561089218 0.580056667
0.421223462 0.551289558 0.506405413
0.57138747 0.562242687 0.591142774
0.718821287 0.561360359 0.557928085
0.223676503 0.562914908 0.636896193
0.377066523 0.566299617 0.523832917
0.520537317 0.568862498 0.572764516
0.675159812 0.560621738 0.583550036
0.328848064 0.570139647 0.513679802
0.478499085 0.564499199 0.531971037
0.622735739 0.570076764 0.580159247
0.290238649 0.573399663 0.56673944
0.437010318 0.572320461 0.4871324
0.592975616 0.574899733 0.577411413
0.731994331 0.571558475 0.528709054
0.264829516 0.577500641 0.595244169
0.408439189 0.574240685 0.478064746
0.551986694 0.584519386 0.573708117
0.698231399 0.569734871 0.558995545
0.229339927 0.59638232 0.611668348
0.389552146 0.5832991 0.479696214
0.577839434 0.600178957 0.57106781
0.726985037 0.58852011 0.496707976
0.269150406 0.580775619 0.574071586
0.513830543 0.596198797 0.527065873
0.66645515 0.577504992 0.551775336
0.485548377 0.58913964 0.484195471
0.635085881 0.593065381 0.55542767
0.355857939 0.586919725 0.447734505
0.648403943 0.604585409 0.543638229
0.23294206 0.605331361 0.610406697
0.580937922 0.603960872 0.525291204
0.318470508 0.610736549 0.451760381
0.647563219 0.619149268 0.497525722
0.268827438 0.623994827 0.557767332
0.222702876 0.622173488 0.612309694
0.224484891 0.630933344 0.610332012
0.229902953 0.634185672 0.597273767
0.226717651 0.641042888 0.593517363
0.240789294 0.632295668 0.585713089
0.247775421 0.651033998 0.577245235
0.256467223 0.651295125 0.56013155
0.26819241 0.654060841 0.539176226
0.286382943 0.665001571 0.505649328
0.287245691 0.656116486 0.46792224
0.187904716 0.691387236 0.61441952
0.20068796 0.69453299 0.612642646
0.209729627 0.702426791 0.615662992
0.219148383 0.704836965 0.58514142
0.224523872 0.712689102 0.584540963
0.219625175 0.710027695 0.591843903
0.222214565 0.716381729 0.618004084
0.178894788 0.719281375 0.621822596
0.324755996 0.730320692 0.396214157
0.293473631 0.72189635 0.43312934
0.255479991 0.72957629 0.522458732
0.211711377 0.738697112 0.600652158
0.355898947 0.730871677 0.37665996
0.180627719 0.751039863 0.616910577
0.306123614 0.735546649 0.424044222
0.107148767 0.742230475 0.594335139
0.262516648 0.744745672 0.556963682
0.0482879989 0.748818099 0.52834332
0.20327279 0.772705555 0.583605587
0.341676921 0.745683014 0.39928776
0.146752298 0.754964352 0.589159131
0.295005918 0.750977278 0.43392244
0.0979003906 0.753818631 0.562396765
0.243910298 0.770177007 0.536175728
0.217896193 0.767201185 0.572876215
0.173376471 0.768042266 0.556551933
0.17179288 0.772278845 0.542446971
0.228483528 0.773039281 0.42744565
0.179657251 0.773470938 0.320491761
0.1372592 0.782713652 0.348130167
0.290753096 0.790400684 0.42988351
0.249638274 0.796164393 0.416423202
0.139113799 0.797635972 0.3242082
0.282164663 0.802216113 0.416228056
0.158041164 0.805622458 0.297596723
0.158527374 0.817779541 0.288164467
0.166060254 0.826101065 0.252712101
0.105145983 0.839977264 0.190049633
0.112645701 0.833194137 0.240131855
0.140212178 0.850143433 0.218555883
0.144233629 0.870281935 0.166715145
0.165802196 0.873757482 0.0980260074
0.146078229 0.87816608 0.132148579
0.1310222 0.887611568 0.125583351
0.0929224342 0.886610746 0.0995490626
0.0873088688 0.909102023 0.0752562433
0.105477594 0.926620007 0.0665179566
0.122204259 0.902752697 0.0697977394
0.140182227 0.92082572 0.0497384369
0.185315207 0.928351402 0.00828481279
0.174633235 0.933720708 -0.0167485047
1.40981662 1.31309831 0.840781987
1.6735065 0.339886516 0.662611008
0.708955288 0.443091005 1.48955572
0.753522098 0.374476016 0.797839344
1.47071767 1.37334871 0.948120952
0.972401857 1.22179842 1.4429177
0.750436783 0.482594132 0.828734457
1.84741342 1.56481647 1.39691448
1.02764177 0.843485951 0.953857005
1.41911352 1.44978559 1.49852705
0.82295084 1.0294888 1.56381953
1.48760581 1.24715948 1.84178221
1.53564131 1.25188327 0.800973535
0.983308554 0.514071822 1.09840262
0.682853937 1.60649145 1.55119073
1.5528239 1.03862453 1.31255412
0.775054932 0.526710212 1.08319855
1.77219212 0.982025146 0.859588623
2.0181241 1.04082799 0.92387259
1.12035227 0.498010814 1.00988138
1.0006448 0.813744307 1.17810261
1.68881881 1.67972481 0.897553146
0.913987815 0.794357896 2.24185634
1.39405668 0.990254283 1.19926095
0.722276807 1.0803318 1.49320138
0.892021835 0.52949214 1.00314808
0.647851288 0.375204772 0.867078066
0.863345683 0.365136504 1.11901474
0.768380105 0.49489063 1.17972183
1.07561004 0.591558874 0.672750056
1.10231256 0.887496948 1.31853306
1.00784087 0.758016944 2.10951281
0.911258817 1.51387131 1.07275617
0.630698323 0.976396501 1.36708522
1.01408434 0.482652366 1.48476207
1.99247026 1.29788041 0.902949512
0.823529601 0.875289202 0.870580435
