ply
format ascii 1.0
comment Written with hapPLY (https://github.com/nmwsharp/happly)
element vertex 790
property float x
property float y
property float z
end_header
0.260204256 0.00312891789 0.556315124
0.493063986 0.00349130412 0.731284916
0.257309765 0.00806978904 0.5589239
0.34629187 0.00840675365 0.684502721
0.488112658 0.00443600072 0.733718574
0.163728103 0.0109280432 0.490318716
0.291634768 0.00864936784 0.569702089
0.375639379 0.0122333346 0.700417817
0.523058236 0.0120352805 0.734613538
0.159215614 0.0164026953 0.485513061
0.285296291 0.0134349111 0.563194573
0.370251209 0.0245350488 0.686595857
0.518609107 0.0115542579 0.744630516
0.161207333 0.0143836038 0.449161947
0.267650604 0.0220995992 0.559182942
0.356607616 0.036698401 0.685227573
0.504088163 0.0212124493 0.739329517
0.685303986 0.0168512166 0.721064627
0.184360564 0.0217102338 0.517749846
0.292023242 0.0236722119 0.619422913
0.410550803 0.0360356979 0.705010593
0.542760015 0.019665787 0.75208056
0.752651751 0.00473108934 0.723712027
0.220281556 0.036129836 0.554706335
0.309355378 0.0343434252 0.658034265
0.451454878 0.0316612385 0.723073244
0.583518386 0.0319290012 0.778355479
0.242758498 0.0198596623 0.276119083
0.227422684 0.0387375727 0.550698519
0.327986807 0.0387776643 0.67273134
0.468294114 0.0285238679 0.722034037
0.600751519 0.0296050776 0.782241046
0.246598288 0.0190869886 0.277830601
0.231737182 0.0381165072 0.542690396
0.318161428 0.0448248647 0.677278876
0.469109058 0.0376179442 0.72321403
0.607334316 0.0239873882 0.772413611
0.246182039 0.0226561725 0.264059484
0.226573482 0.0441181138 0.535774708
0.323765486 0.041834645 0.667005002
0.46449846 0.0460625812 0.7171911
0.589529335 0.0302142631 0.76721704
0.797524691 0.0177506264 0.742627203
0.220870316 0.0587019213 0.532949507
0.312711298 0.0517358743 0.633806288
0.440752268 0.0430780426 0.71393615
0.574771643 0.0436254069 0.774330795
0.7632581 0.0348884538 0.767551959
0.204292372 0.0525165536 0.520658672
0.292688876 0.0585322939 0.636573553
0.429024547 0.0569001809 0.697618484
0.566657603 0.0427133478 0.768030405
0.742732882 0.0368476957 0.767441213
0.187428489 0.0594446026 0.500179172
0.292296261 0.0531029031 0.585675716
0.410309851 0.0595989972 0.69435215
0.537198782 0.0532058366 0.761159539
0.718504608 0.0456901602 0.734831572
0.184728712 0.0538305938 0.432625651
0.283776879 0.0700289309 0.552513659
0.374329656 0.0642320812 0.685841799
0.489190668 0.0586463176 0.745954752
0.651092947 0.051571101 0.78288871
0.25109309 0.0448436104 0.259212703
0.240890577 0.0656084269 0.527555943
0.334060282 0.0691144988 0.655336559
0.444540441 0.0685238093 0.746056139
0.601745844 0.0687935501 0.781126499
0.772724628 0.0440565348 0.786295176
0.202814281 0.0658859015 0.493278027
0.32278505 0.0772592872 0.589165986
0.426742345 0.0644145161 0.695660174
0.550659418 0.0671358109 0.773542881
0.726545393 0.0558096841 0.772570848
0.275246561 0.0469512083 0.307439893
0.291715741 0.0709938332 0.546419442
0.381878525 0.0735404566 0.672559857
0.491536021 0.0673865527 0.766623735
0.653587759 0.0616756603 0.769903541
0.820008516 0.0544419885 0.789882183
0.252264768 0.075674817 0.509370267
0.33577022 0.0685362294 0.643461466
0.457698762 0.0893762782 0.742267609
0.594134092 0.0706571639 0.786641181
0.759969592 0.0679066256 0.801833212
0.307927579 0.0551764779 0.333263308
0.330103308 0.083849214 0.574687719
0.413643658 0.0764345154 0.715243936
0.537391067 0.0784388483 0.791414142
0.718637764 0.0678872988 0.767638624
0.286676079 0.0648424253 0.275562674
0.295870423 0.0852708519 0.529231548
0.379823148 0.0841681659 0.660342097
0.482024759 0.0923900977 0.776816785
0.654458642 0.0813869834 0.775309443
0.804769337 0.061065454 0.805488646
0.260302693 0.0890197381 0.506524742
0.357708901 0.0882814452 0.634384871
0.441710711 0.106073402 0.758171499
0.593148768 0.087411724 0.789780438
0.762407184 0.0815160424 0.806058884
0.245607391 0.0881943777 0.45155707
0.349354267 0.0925702676 0.58368063
0.427010357 0.107480079 0.731567264
0.563654482 0.0948140472 0.789426923
0.74036634 0.0840376094 0.788095832
0.32114771 0.0875599757 0.324966341
0.329721838 0.11140085 0.544854105
0.406837046 0.102521069 0.713866711
0.520827889 0.0914208964 0.780044436
0.715573609 0.0881648883 0.778340578
0.880687177 0.0816765353 0.792808354
0.314975381 0.10229554 0.561684966
0.373198748 0.0924274996 0.69668752
0.505180955 0.101623163 0.790186763
0.679501355 0.0973965824 0.792181671
0.835289717 0.0885033384 0.817241013
0.283508182 0.11042057 0.542754173
0.373225093 0.112491332 0.674127221
0.479022533 0.120797522 0.784986198
0.635296881 0.105710775 0.8045066
0.80887568 0.0961497799 0.823199451
0.26932025 0.104566544 0.518906057
0.369530618 0.107262291 0.638694704
0.454929203 0.117637433 0.77378726
0.610719025 0.112557091 0.803391993
0.763711452 0.111663289 0.808766127
0.259837985 0.112494178 0.492076665
0.37685433 0.113188498 0.592870116
0.439830065 0.122540258 0.759280384
0.581247449 0.117749043 0.807231307
0.76735127 0.121683322 0.789561033
0.272496492 0.11701145 0.443304688
0.362824112 0.118194252 0.566383004
0.418888003 0.115440756 0.753732562
0.554461539 0.121866442 0.797349453
0.742181897 0.114719301 0.782313466
0.326752931 0.106145084 0.305138081
0.33159098 0.124886975 0.559396863
0.393012613 0.125225529 0.723293364
0.521445572 0.129368633 0.800920725
0.695989192 0.119387083 0.805074215
0.856651962 0.117707394 0.820636451
0.3025181 0.12987195 0.553671837
0.380050302 0.137777001 0.702689946
0.478036076 0.14531894 0.799354911
0.659688175 0.126706779 0.804197907
0.81377697 0.11646343 0.8259781
0.25750789 0.142362997 0.538807929
0.37922141 0.149015516 0.65372926
0.45519352 0.143054992 0.788463295
0.624011993 0.133301735 0.808435619
0.79010731 0.124920063 0.823260367
0.272588044 0.136128113 0.499572426
0.372165352 0.140253231 0.602156341
0.45138061 0.149012849 0.765163779
0.585393012 0.137790442 0.809955776
0.757236779 0.151106432 0.815117836
0.273990661 0.1271009 0.438693494
0.369880944 0.138301879 0.570294082
0.411186129 0.150933802 0.752792954
0.551065445 0.147692084 0.803899944
0.733010709 0.134954438 0.795988142
0.286074758 0.130192667 0.3692891
0.313549578 0.149046108 0.573071182
0.379888147 0.159198627 0.727783263
0.509662986 0.156308845 0.785003841
0.682546377 0.142545149 0.810243011
0.851587892 0.134632647 0.830867052
0.276711822 0.154775202 0.540088534
0.371147484 0.149808615 0.648653626
0.460118055 0.159631357 0.793090224
0.623835146 0.144750908 0.808480978
0.796698093 0.145956591 0.820509613
0.278465658 0.156938568 0.43299523
0.348791569 0.152905732 0.568651974
0.407004893 0.171159431 0.746210575
0.527082741 0.170139909 0.804201245
0.722599804 0.148660541 0.809573889
0.89544034 0.142154604 0.810826242
0.272925794 0.159537554 0.538989067
0.369930238 0.15258792 0.663661957
0.462579012 0.153701365 0.783625066
0.617957473 0.161390662 0.811902583
0.777630866 0.162952274 0.829713166
0.25229007 0.164661795 0.408707917
0.313882589 0.157394737 0.573584199
0.390058368 0.175907776 0.720954359
0.515929163 0.168048725 0.807007849
0.70485276 0.179035798 0.827999711
0.844650865 0.146122009 0.832396269
0.25970912 0.168681309 0.469525844
0.363750547 0.170499295 0.576663077
0.409555078 0.176164851 0.759836376
0.561339378 0.174948543 0.816516757
0.747078717 0.159441888 0.793523073
0.931505203 0.146521837 0.801860154
0.264255494 0.170865163 0.52454108
0.371263683 0.176033527 0.625489712
0.437143326 0.18269822 0.779822588
0.591890395 0.171048075 0.809867799
0.77805829 0.162576184 0.801364481
0.224480376 0.175710559 0.366181523
0.270939887 0.182337239 0.536518812
0.362645358 0.171945989 0.669477642
0.448370069 0.164335161 0.789011657
0.618100882 0.174171269 0.808651507
0.79008007 0.164382637 0.807228446
0.212396994 0.176300883 0.386548817
0.276254922 0.185432881 0.535018444
0.357025892 0.194313645 0.679739475
0.469029337 0.194093794 0.786735713
0.619722903 0.190067321 0.820601702
0.802388549 0.172011808 0.810436487
0.202055588 0.186076701 0.403411031
0.265352577 0.184434563 0.539533496
0.36159718 0.201704636 0.687045455
0.467214704 0.195286632 0.791292369
0.624862194 0.198940709 0.816090345
0.819817781 0.175629646 0.803854048
0.19280754 0.19118695 0.411842793
0.292511791 0.197651401 0.557677925
0.362838298 0.191049516 0.689813375
0.475148141 0.19136408 0.772847056
0.628073275 0.190502793 0.811583579
0.802893877 0.173135146 0.801384091
0.183596849 0.211620227 0.415768772
0.276638925 0.199602276 0.547101736
0.355669498 0.203005508 0.691427231
0.465952724 0.204084605 0.798308849
0.626072943 0.203531981 0.816578448
0.809951067 0.186598778 0.801188648
0.177141666 0.208570242 0.424426585
0.263880789 0.210083336 0.546851993
0.358182669 0.206120402 0.683563173
0.460476905 0.199032202 0.792756438
0.631239116 0.199935004 0.816559732
0.808232069 0.185939863 0.790671408
0.187039539 0.201287299 0.414551407
0.276319474 0.200671107 0.532657087
0.345269918 0.21404162 0.690617561
0.457439989 0.213510036 0.788270593
0.609870255 0.214887306 0.808635592
0.810600221 0.194002494 0.786777079
0.17370677 0.212829396 0.420844525
0.261879653 0.217545673 0.540271044
0.346010327 0.221469164 0.678165257
0.465084732 0.222658679 0.78556782
0.611951292 0.210918665 0.819253623
0.809894323 0.202424526 0.780699611
0.168575555 0.21810402 0.424290061
0.237621054 0.240220979 0.549346149
0.362639785 0.222990409 0.678887129
0.450002998 0.222370237 0.789351165
0.609397054 0.203717083 0.828617334
0.811942577 0.203778923 0.77220118
0.164952144 0.216423526 0.414581507
0.246618226 0.221447691 0.532893479
0.348865211 0.227037147 0.654163778
0.443314165 0.227586955 0.787130117
0.586337864 0.218618348 0.827463746
0.796108067 0.209516123 0.785299063
0.14901489 0.227365404 0.394472003
0.237757966 0.228983298 0.522747576
0.355495363 0.227205798 0.610234559
0.418153584 0.231535167 0.786228716
0.567641079 0.223990917 0.822240412
0.747981668 0.206617638 0.793732882
0.147897452 0.217193946 0.315801889
0.214040101 0.232443288 0.508075535
0.335070342 0.230822131 0.580933094
0.389209449 0.23654364 0.753718495
0.513386488 0.228393883 0.820314527
0.702772975 0.231214494 0.810120344
0.897460818 0.213037282 0.791812479
0.188235328 0.226229623 0.483507156
0.298514098 0.236678362 0.568497717
0.363396615 0.239633158 0.722994566
0.491448134 0.242301539 0.808682978
0.664147317 0.241703287 0.82371527
0.854235411 0.220290989 0.788630843
0.162741035 0.241476014 0.449576288
0.268215537 0.240502626 0.551943362
0.36510694 0.24942337 0.693826437
0.454804897 0.24482438 0.791194618
0.603645444 0.253958195 0.828549981
0.836576283 0.228333965 0.761389852
0.13299115 0.238489479 0.420392007
0.24471879 0.235165507 0.534999728
0.341166496 0.249259397 0.652676105
0.425942302 0.241438255 0.777516663
0.561720908 0.234700218 0.824014843
0.781795025 0.24005945 0.787937105
0.131333232 0.247843087 0.389275521
0.226642057 0.248418838 0.527511656
0.344816774 0.260967016 0.596299529
0.400850803 0.2577914 0.769100368
0.549665093 0.252591193 0.832322121
0.734132111 0.241358101 0.800964236
0.130257368 0.252413392 0.378550053
0.219302446 0.250508398 0.514770269
0.340726435 0.253830433 0.58825326
0.400363028 0.260092139 0.760262311
0.524714947 0.244418561 0.808096886
0.710042953 0.24324362 0.829833686
0.131307244 0.257140845 0.398543358
0.215423703 0.265688688 0.524653137
0.346402735 0.255375594 0.603591561
0.409943908 0.257347882 0.768297493
0.53776145 0.266360492 0.81865406
0.733000219 0.252339423 0.809675455
0.143565059 0.267726839 0.435520917
0.257113725 0.272217035 0.536711872
0.322845966 0.273359925 0.694081068
0.443481654 0.267651528 0.787293732
0.579953969 0.270047277 0.838453889
0.798954904 0.250776261 0.779528856
0.168601215 0.265484571 0.479902446
0.29049015 0.266658515 0.569156468
0.353458136 0.261187702 0.716723263
0.475355476 0.280546218 0.796413124
0.634105027 0.259349555 0.826735139
0.123966202 0.27147463 0.34350875
0.186071679 0.274614692 0.494820029
0.309075654 0.269943625 0.569822907
0.363625586 0.272321045 0.750998616
0.493240148 0.282863766 0.809886277
0.680474162 0.284893304 0.823068202
0.122324966 0.271539599 0.379890651
0.20315969 0.281255275 0.521643341
0.334356517 0.269779414 0.58735621
0.397970438 0.281855077 0.748643875
0.534105361 0.274931788 0.817293286
0.702425003 0.275960505 0.824103892
0.10812255 0.288119406 0.415234625
0.208774865 0.284051657 0.536096096
0.348377824 0.2823219 0.619053245
0.413473815 0.288868755 0.763459861
0.547658205 0.283109218 0.825273216
0.740832686 0.265908033 0.808884025
0.130132124 0.285093933 0.438642472
0.23048982 0.286463171 0.535688102
0.323760986 0.282669961 0.65990299
0.425433218 0.291516334 0.77802676
0.574205518 0.282881051 0.825963318
0.765972614 0.280630648 0.802603841
0.13473691 0.294685423 0.453523457
0.24681747 0.30822739 0.535396755
0.323519945 0.287333071 0.673251867
0.420855999 0.301961273 0.791864216
0.585556149 0.292902052 0.834508359
0.789225519 0.280307561 0.784128428
0.13871406 0.297384202 0.467226416
0.25700599 0.300328106 0.551940501
0.344943315 0.296846181 0.696466148
0.452762246 0.299503505 0.793701351
0.596366823 0.292697072 0.833342552
0.820115566 0.284855038 0.76858902
0.142694041 0.302228868 0.476943791
0.275154322 0.295094967 0.560479283
0.338094473 0.302219152 0.711277068
0.455787212 0.302155852 0.789840937
0.604641199 0.29404521 0.841957569
0.124182612 0.292400151 0.280376107
0.148873329 0.304348022 0.488230377
0.281189203 0.306350708 0.563785791
0.346705407 0.315169334 0.710759521
0.463566154 0.319312781 0.794402778
0.628814638 0.30589819 0.829600334
0.0921251699 0.319959283 0.33491683
0.173952132 0.321696281 0.501130939
0.290254742 0.308607996 0.574212492
0.357016057 0.316716701 0.749570131
0.478104413 0.311755627 0.808098555
0.637915254 0.312086225 0.824754357
0.100908697 0.309377044 0.353853762
0.177532747 0.315180451 0.504211724
0.292910099 0.318946123 0.581663251
0.366807759 0.324546874 0.734961033
0.501734376 0.30469197 0.825123489
0.663499892 0.309446722 0.825026929
0.100487195 0.314098418 0.391404182
0.1866813 0.293349862 0.518542111
0.312045097 0.315393388 0.572427154
0.377946615 0.321268111 0.739957094
0.517521977 0.323099315 0.812140763
0.680652082 0.309182763 0.830806553
0.103465386 0.320114613 0.422987968
0.199840441 0.328394145 0.525218844
0.320798546 0.320271224 0.595478535
0.405116886 0.327831656 0.764976382
0.539563596 0.324864805 0.834877074
0.708663762 0.328471303 0.805272341
0.109021261 0.328713149 0.416353017
0.194128543 0.331160367 0.538932264
0.332770348 0.332765907 0.607364833
0.403685391 0.330984205 0.759141445
0.544397891 0.327225536 0.813658535
0.723895609 0.322210908 0.819974005
0.11328996 0.333411992 0.424989253
0.217266113 0.339617699 0.531073689
0.336533397 0.332585782 0.615180612
0.41111967 0.337632954 0.76260525
0.556990623 0.336178958 0.810373485
0.736172557 0.326910794 0.813374519
0.110544525 0.344385296 0.437034279
0.217469305 0.338887036 0.539435804
0.331323802 0.337245911 0.624237895
0.416576207 0.340016782 0.765888929
0.556432366 0.336085528 0.816973567
0.752749324 0.34740001 0.799050629
0.118401438 0.349323213 0.410227597
0.221244812 0.343836904 0.540373683
0.343081385 0.343987823 0.621735275
0.422174484 0.34942916 0.769022942
0.557000339 0.350885928 0.823065519
0.741265893 0.332118243 0.80722183
0.113597319 0.348162889 0.439143807
0.222689107 0.345830292 0.538184166
0.351397097 0.351718754 0.615365922
0.419465303 0.347222984 0.767710745
0.564513922 0.344316959 0.813577771
0.755371809 0.354474336 0.818254471
0.112087213 0.349458814 0.433162659
0.227013394 0.346929371 0.529675066
0.342269123 0.350409627 0.61518687
0.414695024 0.344026953 0.774292588
0.563275576 0.349346936 0.813811779
0.743336797 0.338090837 0.802966654
0.126285806 0.361427218 0.426399022
0.233761877 0.338462353 0.534101009
0.349498749 0.35559994 0.617726743
0.419003159 0.358606279 0.761528194
0.565672815 0.363978267 0.80928427
0.743461668 0.347643286 0.806414127
0.113057055 0.361739784 0.43389681
0.217286095 0.348688066 0.546002448
0.340656459 0.359465331 0.617511928
0.426867515 0.358046263 0.782312155
0.567226768 0.356172353 0.804173768
0.748039782 0.346960813 0.809177279
0.108741574 0.363611549 0.421178699
0.234540939 0.361092836 0.540793419
0.33530426 0.364157736 0.619419038
0.418410331 0.367845029 0.765528619
0.569719851 0.362617403 0.811301112
0.744169414 0.355529994 0.803536534
0.114903674 0.374200016 0.430618554
0.217380136 0.37541759 0.536804676
0.337304801 0.369118631 0.619457781
0.422290713 0.376037657 0.758490682
0.5558213 0.365243047 0.78465569
0.741077781 0.359985113 0.803432167
0.111017235 0.378883123 0.43229413
0.21457006 0.3708722 0.537876129
0.346884817 0.37450853 0.61599642
0.422612131 0.377719373 0.761347234
0.558537543 0.373028755 0.804944634
0.74735868 0.367548347 0.801206231
0.129022673 0.36547175 0.433841527
0.218333855 0.380398601 0.535301149
0.340219289 0.377409101 0.619648933
0.438464582 0.372061759 0.762072682
0.56850785 0.372392982 0.803051531
0.759967029 0.367353171 0.805215776
0.117146522 0.385504574 0.435881764
0.225931793 0.388749868 0.536958039
0.3472386 0.382769227 0.620529592
0.432106555 0.388940603 0.761866987
0.571622849 0.386446536 0.801426172
0.764568686 0.37604633 0.788578629
0.118787721 0.391508311 0.441179246
0.245499864 0.381793976 0.545296788
0.353154659 0.385029554 0.619832218
0.435887337 0.364315927 0.739660203
0.580867052 0.386108279 0.803596795
0.78439784 0.380400956 0.785282969
0.127716556 0.387956172 0.449909568
0.236379758 0.393240839 0.542198122
0.356999755 0.391009837 0.624149323
0.446168244 0.393003792 0.751826465
0.57906121 0.391666621 0.801208138
0.781085134 0.375271082 0.785107255
0.129015744 0.397502542 0.448061019
0.250161707 0.396116465 0.547692001
0.349289894 0.384988636 0.610826075
0.452834845 0.379910678 0.758466721
0.589936972 0.395550102 0.807183921
0.791385055 0.365310967 0.764312387
0.137533665 0.390905708 0.451291412
0.250389576 0.400120139 0.559090078
0.36124593 0.407403618 0.643153965
0.463233471 0.397616416 0.753661931
0.588018298 0.394410372 0.809810042
0.829168081 0.389477849 0.73001653
0.142280161 0.405591428 0.458273888
0.242864281 0.403985381 0.540636897
0.366513938 0.412751377 0.64225769
0.472168982 0.405688345 0.751423776
0.604241788 0.397667766 0.815324664
0.872537017 0.388857991 0.705185652
0.148461819 0.402235597 0.461085349
0.259008974 0.415973395 0.547020257
0.370569259 0.406451434 0.631094635
0.483169913 0.406080902 0.732647181
0.612859547 0.406207889 0.805342913
0.106353678 0.410672396 0.269233078
0.149951383 0.416229635 0.464293182
0.27012971 0.415454268 0.547290385
0.376154244 0.433713198 0.641996264
0.5063411 0.42166844 0.742903888
0.629270136 0.409655362 0.801235139
0.100556888 0.416218162 0.293971241
0.155679047 0.420776635 0.457435638
0.286512136 0.409489065 0.557140827
0.389330477 0.412546337 0.642107606
0.50785017 0.42391035 0.734772921
0.640143633 0.414449126 0.801234365
0.104090109 0.421013594 0.323273897
0.174048394 0.424238741 0.487595171
0.297945112 0.423715442 0.558721423
0.403883994 0.434018195 0.644215405
0.520979702 0.419570416 0.747423291
0.672128856 0.4215599 0.80988127
0.188437551 0.432965606 0.494107753
0.312970906 0.437013119 0.569318235
0.42362836 0.425558776 0.655945837
0.541020751 0.427269548 0.761676073
0.692319632 0.427841514 0.788100839
0.213963091 0.425074488 0.497392863
0.329836756 0.439872146 0.587070167
0.447019577 0.442949414 0.674641371
0.542829871 0.428008497 0.776428401
0.713922024 0.423866004 0.788808286
0.226060078 0.440806687 0.512584805
0.327171117 0.43352744 0.588089108
0.455407858 0.441378206 0.695768356
0.578269303 0.422846019 0.787057161
0.753500164 0.427242666 0.777196944
0.266630441 0.445875943 0.530873775
0.37168473 0.450302005 0.609910488
0.476916492 0.434332043 0.706839263
0.602020204 0.437134862 0.781695008
0.114778697 0.44227159 0.258644134
0.165283471 0.446356833 0.458086848
0.284292996 0.450416058 0.549465656
0.393370301 0.44723776 0.640301287
0.512497544 0.446167976 0.723453462
0.643901408 0.426242262 0.765522957
0.191408053 0.454259455 0.482227027
0.325768232 0.429605216 0.548392296
0.423209012 0.452109069 0.66355741
0.547520339 0.444683313 0.737245858
0.696428478 0.442763567 0.786130488
0.226243138 0.452824652 0.504160464
0.354606658 0.45555371 0.601172984
0.458096296 0.451424927 0.698843241
0.586035073 0.452731133 0.766751409
0.767597973 0.436713725 0.752672851
0.271947861 0.463109672 0.53593874
0.386451364 0.461297542 0.63239032
0.504643738 0.450830638 0.719665289
0.638067126 0.456965268 0.776633918
0.210945576 0.455710799 0.479294926
0.323753148 0.463016629 0.558738172
0.427809745 0.463674307 0.66481775
0.560601294 0.472021759 0.733084857
0.705611885 0.463758677 0.7790851
0.250330836 0.469081014 0.511649013
0.3734577 0.475522399 0.585276186
0.473624647 0.467787027 0.699625969
0.605694115 0.461576492 0.756675839
0.129649311 0.474045604 0.271537632
0.180148199 0.473880708 0.454029888
0.304424167 0.482828707 0.546586752
0.405615091 0.472412854 0.634336948
0.519580662 0.462181896 0.712439835
0.662897587 0.471651167 0.779297829
0.230620414 0.477827847 0.485287756
0.350824952 0.479719281 0.570485294
0.45571202 0.476243228 0.666938007
0.585252762 0.473402351 0.749131143
0.756844103 0.46845451 0.756489038
0.285707414 0.482070178 0.522785783
0.397107303 0.476063251 0.619613528
0.50489974 0.479255229 0.715499759
0.650747895 0.488778621 0.767829478
0.218951643 0.478587359 0.472315818
0.331994563 0.485303879 0.550421655
0.435510546 0.488423109 0.662022531
0.557406664 0.484362006 0.721524894
0.716181397 0.478427559 0.761378706
0.263298303 0.492967069 0.496299714
0.384405971 0.489797503 0.58459568
0.475307137 0.491797924 0.697864294
0.613503814 0.498475462 0.741462767
0.306103736 0.501800776 0.528061032
0.417171568 0.49301669 0.62436235
0.533150911 0.488672405 0.71886152
0.660841942 0.502079308 0.77053231
0.22295247 0.499007285 0.487631887
0.357281566 0.498582333 0.549737394
0.452950805 0.498545885 0.667156518
0.580159068 0.496128172 0.732225835
0.771508634 0.482162833 0.732117593
0.297769964 0.501212299 0.496445358
0.404666752 0.506887734 0.594953001
0.505292654 0.493992537 0.70037967
0.63665539 0.500182867 0.753311336
0.329582721 0.508277297 0.51138109
0.439348042 0.521888018 0.636315167
0.538189471 0.496222198 0.717336237
0.699445784 0.503112555 0.765587986
0.250743777 0.49159357 0.47110039
0.372827142 0.508481383 0.549439788
0.457973659 0.506202638 0.672021627
0.599896431 0.508331835 0.743248403
0.306195438 0.515705943 0.477922648
0.415882528 0.519978881 0.580661297
0.507856965 0.51672405 0.69706732
0.650488913 0.504597723 0.74134922
0.337561011 0.516772151 0.511746824
0.441845328 0.521764219 0.631857753
0.550980866 0.538509309 0.718886852
0.715253234 0.513858318 0.74249649
0.261123389 0.525586545 0.47993046
0.388222903 0.515367091 0.541620314
0.491062105 0.531438589 0.674184024
0.616625309 0.524419606 0.736624718
0.326446861 0.539572597 0.491581827
0.431509823 0.532801747 0.598215878
0.535342515 0.530384958 0.700874388
0.682568967 0.530207574 0.737993658
0.240661711 0.529157937 0.487917542
0.368252903 0.547017932 0.516352236
0.474608094 0.527417064 0.648213685
0.600841224 0.536177456 0.723477781
0.312796026 0.537053823 0.478356332
0.426289201 0.538873672 0.579307079
0.535376012 0.544012785 0.69169879
0.671798229 0.535439134 0.733240485
0.224346995 0.547404706 0.48752901
0.38353613 0.542762995 0.511647344
0.470311165 0.54632169 0.643704593
0.620116115 0.539129496 0.715828955
0.323873252 0.545171022 0.46941337
0.434123188 0.542912304 0.569898129
0.543915749 0.545475602 0.685231507
0.687787771 0.547090173 0.722543478
0.226031363 0.55026865 0.484093249
0.404930025 0.554042459 0.512437701
0.487327993 0.554571033 0.636824965
0.608090341 0.55412972 0.726086855
0.340171039 0.5577842 0.473992378
0.449416846 0.557314038 0.580273628
0.549344897 0.58539629 0.674140096
0.732991457 0.551782727 0.682647407
0.270949185 0.55885452 0.47871992
0.431347728 0.557988107 0.502041996
0.506715596 0.562065005 0.648646891
0.64223659 0.559055865 0.706214547
0.198899552 0.571191013 0.493417382
0.369041383 0.568526328 0.483870059
0.475857526 0.568250716 0.608635604
0.587609708 0.566504359 0.695534885
0.34473747 0.573781848 0.451642722
0.468404889 0.569912016 0.546733201
0.550752044 0.567376375 0.670981288
0.283440709 0.586134911 0.489474624
0.449406326 0.576361954 0.493489891
0.525479198 0.581226707 0.64724791
0.677375317 0.572935045 0.687971711
0.242011264 0.582034111 0.486376435
0.424246877 0.584570587 0.468836039
0.511762619 0.575988829 0.611598849
0.642135739 0.582187951 0.685697377
0.212153479 0.585559309 0.475861937
0.415421963 0.585109234 0.451272815
0.530143499 0.583866596 0.635462284
0.681262732 0.58332634 0.666377604
0.26553458 0.598116994 0.482712954
0.497901171 0.592552602 0.563574195
0.602840602 0.588361621 0.667779624
0.505362928 0.591404617 0.511365652
0.58640492 0.589481235 0.647377789
0.395331383 0.595654011 0.409314185
0.592242181 0.596705914 0.66747129
0.202550754 0.617302537 0.480784655
0.541291893 0.605936289 0.603331506
0.372698873 0.600324452 0.387054712
0.613419414 0.617015064 0.613309681
0.26164332 0.627068102 0.467308134
0.213169351 0.624961019 0.466197282
0.211214349 0.631105125 0.471359104
0.202422753 0.626261592 0.488531172
0.223031938 0.639030039 0.459637105
0.226870924 0.646351039 0.458151758
0.248638585 0.646110117 0.447136968
0.261921823 0.66061902 0.445993423
0.269691765 0.654123604 0.442469329
0.306594133 0.664515913 0.415965676
0.339332104 0.65698874 0.383974731
0.18095614 0.691334605 0.459204286
0.193306699 0.699295819 0.467988849
0.212818787 0.700223088 0.466999263
0.223094627 0.705082834 0.444983155
0.228618279 0.711572289 0.445439994
0.199699163 0.708705425 0.455275208
0.188198894 0.729042172 0.464012176
0.165015578 0.726534545 0.454331249
0.409563214 0.717220545 0.356399953
0.358299553 0.731981635 0.363854051
0.287563264 0.733126938 0.416369617
0.207781777 0.738885999 0.451037198
0.449824333 0.733858645 0.357028455
0.149767563 0.744082391 0.430447429
0.384501308 0.752172947 0.366637915
0.10716217 0.755820692 0.368844062
0.261814862 0.747544527 0.439264268
0.101179525 0.758454919 0.308058202
0.189097509 0.753315449 0.458432049
0.429163307 0.739449501 0.355274111
0.153822958 0.757824302 0.413186371
0.357288569 0.754117727 0.376058728
0.146355644 0.746286213 0.362582117
0.268916667 0.759163797 0.420942903
0.202085167 0.786156297 0.415597022
0.197039336 0.774915993 0.402970135
0.209163979 0.766037047 0.389856577
0.320864558 0.774670839 0.326956034
0.325794905 0.778501093 0.210779056
0.284121811 0.791191518 0.210144252
0.374999374 0.797728539 0.363966674
0.341744453 0.805803895 0.331186175
0.306991696 0.807263374 0.1874488
0.368797749 0.806058645 0.345039219
0.329506397 0.811007142 0.178626359
0.352390081 0.808617592 0.172245309
0.361796618 0.835432649 0.144546404
0.332622111 0.840388238 0.0718990788
0.340975314 0.847330093 0.0971352831
0.361942261 0.853296757 0.107484683
0.393031925 0.87203753 0.0605367124
0.44725275 0.883131862 0.0211086273
0.414817572 0.88991195 0.0235469248
0.401860982 0.887711227 0.0125905201
0.399454713 0.898056149 -0.0106047988
0.412525356 0.895655692 -0.0463710837
0.411378533 0.916964591 -0.0469845608
0.421602756 0.919762015 -0.0335986838
0.454965234 0.92799896 -0.0351235978
0.526335001 0.937438428 -0.0389817022
0.507342994 0.949340701 -0.0500111207
1.05202961 0.798762262 2.30873179
0.451298565 1.52031183 1.73548222
1.46148503 1.20688236 1.48743534
0.966012955 1.52263391 1.33762467
0.81192857 1.05376923 1.2553134
1.24340677 1.64210498 1.52571356
1.17343748 1.68095851 1.38054335
0.461964011 0.462180555 0.895094931
1.19149327 0.66372782 1.27033627
0.72159189 1.75251961 1.92817855
0.940482736 0.407837212 0.647605002
0.527212381 0.628955901 1.15690267
1.51815188 0.595524907 1.33786285
1.04959095 1.17126751 1.86642504
0.925268114 0.76789254 0.863147557
0.762582004 0.465292692 1.04734766
1.70966721 1.73107421 1.12569249
1.14068735 0.950755715 0.714090586
0.916693866 0.650560081 0.846113265
1.29919827 0.957193673 1.55526781
0.820153952 1.01308453 0.68182224
1.36131275 0.488858074 1.9166255
0.474694997 0.889407754 2.29895568
0.928634226 0.362232089 1.15742266
1.2907263 1.31354296 1.94175911
1.08640742 0.536054194 0.6526227
0.970878661 1.21745276 1.25795567
0.62294662 0.882809579 1.41042793
1.05966699 0.94271642 0.757003784
2.27661133 0.584485233 0.990354776
1.71171486 1.36470401 1.27038336
0.466408789 0.99450928 2.43006921
1.1413914 0.747097075 2.00172329
0.80722177 1.07211339 1.6319685
0.64088738 0.521249652 1.1099993
0.663651764 0.564319968 0.865091443
1.08151579 1.02046204 2.00536108
