ply
format ascii 1.0
comment Written with hapPLY (https://github.com/nmwsharp/happly)
element vertex 693
property float x
property float y
property float z
end_header
0.30145867098865475331 0.17466580226904374062 0.61490891410048620358
0.44732576985413291526 0.17728492706645057608 0.64452382495948135066
0.59319286871961096619 0.18530243111831437575 0.73594943273905988335
0.73905996758508918365 0.18012188006482979241 0.67660680713128040775
0.88492706645056729009 0.16913711507293352487 0.55238833063209069607
0.17341977309562395249 0.17132447325769853408 0.52523565640194480597
0.31928687196110211444 0.18052901134521878723 0.62972058346839543397
0.46515397082658027639 0.18494975688816853165 0.67990599675850882377
0.61102106969205827181 0.18959935170178279784 0.73362204213938397857
0.75688816855753637824 0.18357277147487841007 0.66427423014586706174
0.90275526742301448468 0.17400583468395461328 0.55567649918962724875
0.18152350081037274543 0.17742820097244729749 0.54250891410048618368
0.32739059967585087962 0.18544311183144240873 0.63383857374392216233
0.47325769854132898606 0.19109497568881683716 0.69862755267423015670
0.61912479740680714801 0.19396628849270661221 0.73207260940032414798
0.76499189627228514343 0.18768168557536465957 0.65934521880064822508
0.91085899513776347192 0.17851150729335493739 0.55485056726094006407
0.18638573743922201564 0.18352090761750405878 0.55978476499189622206
0.33225283630470014984 0.19021134521880059265 0.63631183144246339367
0.47811993517017825628 0.19628200972447323869 0.70641296596434355326
0.62398703403565636272 0.19833517017828200535 0.73052382495948120500
0.76985413290113446916 0.19193776337115076025 0.65606094003241488544
0.91572123176661246458 0.18287390599675854008 0.55237925445705016170
0.18476499189627226816 0.18910081037277143290 0.57130372771474868809
0.33063209076175037460 0.19476239870340356086 0.63631701782820082602
0.47649918962722848104 0.20086677471636954495 0.70719870340356560945
0.62236628849270658748 0.20283760129659644811 0.73053030794165307871
0.76823338735818469392 0.19648298217179901992 0.65606742301458664812
0.91410048622366291138 0.18716564019448947431 0.54908395461912473667
0.18314424635332249292 0.19431636952998374013 0.57870988654781196914
0.32901134521880059935 0.19931410048622363873 0.63632155591572125974
0.47487844408427870579 0.20545024311183143761 0.70798379254457044496
0.62074554294975692326 0.20734003241491086311 0.73053679092382484139
0.76661264181523491867 0.20109886547811994806 0.65689724473257693482
0.91247974068071302511 0.19145996758508909696 0.54578865478119931165
0.18152350081037274543 0.19945542949756889239 0.58529400324149094548
0.32739059967585087962 0.20393646677471638506 0.63714943273905988441
0.47325769854132898606 0.20996823338735817743 0.70799157212317653798
0.61912479740680714801 0.21190729335494326580 0.73132123176661256725
0.76499189627228514343 0.20578606158833057105 0.65855040518638563452
0.91085899513776347192 0.19568557536466776869 0.54166936790923825296
0.17666126418152347521 0.20423598055105349203 0.58776337115072940787
0.32252836304700160941 0.20855818476499185521 0.63797795786061584078
0.46839546191247966034 0.21423014586709887563 0.70488881685575355274
0.61426256077795782229 0.21660162074554295542 0.73366029173419766707
0.76012965964343592873 0.21089659643435978986 0.66514294975688814660
0.90599675850891392415 0.19970113452188001379 0.53508006482982173324
0.17504051863857369997 0.20922658022690437951 0.59270340356564010786
0.32090761750405188968 0.21325056726094004933 0.63962917341977298946
0.46677471636952994061 0.21868654781199348136 0.70411928687196101428
0.61264181523500804705 0.22116564019448944900 0.73444408427876817225
0.75850891410048615349 0.21607390599675846410 0.67255948136142618132
0.90437601296596437095 0.20386191247974061458 0.53013549432739059952
0.17017828200972442976 0.21393322528363051260 0.59435072933549426555
0.31604538087520256395 0.21787098865478118914 0.64045769854132905685
0.46191247974068072590 0.22276628849270660448 0.69868460291734191259
0.60777957860615883234 0.22598055105348457960 0.73833841166936786671
0.75364667747163682776 0.22131669367909240220 0.68080129659643429108
0.89951377633711493420 0.20788525121555917474 0.52354359805510530812
0.15883306320907614184 0.21828784440842788350 0.59188136142625602520
0.30470016207455430379 0.22221069692058345590 0.63799286871961091716
0.45056726094003241023 0.22610372771474879228 0.68392025931928679405
0.59643435980551051667 0.23097763371150728529 0.74456466774716367762
0.74230145867098862311 0.22672868719611019572 0.69169529983792543693
0.88816855753646684057 0.21331410048622362341 0.53341912479740671849
0.13776337115072936901 0.22194683954619121025 0.58117666126418143779
0.28363047001620744769 0.22599416531604540892 0.62893938411669358945
0.42949756888168555413 0.22724991896272281333 0.64376207455429490523
0.57536466774716366057 0.23578022690437600017 0.74845769854132893073
0.72123176661264176701 0.23200129659643436986 0.70103338735818465643
0.86709886547811998447 0.22117925445705027832 0.57211799027552667773
0.10372771474878443587 0.22171993517017829500 0.52434943273905987304
0.24959481361426255619 0.23068654781199351977 0.63059059967585084916
0.39546191247974066263 0.23082593192868713916 0.63223792544570489582
0.54132901134521882458 0.23941069692058342122 0.73757925445705019296
0.68719611021069682000 0.23799805510534843833 0.71969918962722845279
0.83306320907617503746 0.22971345218800648391 0.61906061588330629775
0.97893030794165303288 0.21852188006482980986 0.48646547811993517962
0.21231766612641814196 0.23530956239870337576 0.63141847649918958485
0.35818476499189627615 0.23614003241491085539 0.64130243111831441993
0.50405186385737432708 0.24336077795786059674 0.73058930307941649662
0.64991896272285254454 0.24366482982171799865 0.73447649918962720772
0.79578606158833053996 0.23676304700162076333 0.64871507293354935264
0.94165316045380864640 0.22513063209076175641 0.51034165316045376759
0.17828200972447322270 0.23889659643435981473 0.61989043760129658445
0.32414910858995138465 0.24103468395461907781 0.64542625607779580132
0.47001620745542943558 0.24677666126418149051 0.71660421393841167159
0.61588330632090759753 0.24840648298217174461 0.73759222042139382935
0.76175040518638570397 0.24393192868719604238 0.68002269043760121825
0.90761750405186392143 0.22772317666126415392 0.48644667747163694571
0.14748784440842790944 0.24242269043760128477 0.60753711507293350902
0.29335494327390598812 0.24537698541329014401 0.64296077795786066300
0.43922204213938415007 0.24798768233387355475 0.67426515397082653624
0.58508914100486220100 0.25380097244732574557 0.74925769854132895365
0.73095623987034030744 0.25033192868719611468 0.70417439222042133018
0.87682333873581852490 0.23830081037277142664 0.55810826580226902127
0.12641815235008105334 0.24575170178282010336 0.59270923824959476089
0.27228525121555918753 0.25026839546191242958 0.64708589951377626370
0.41815235008103729397 0.24924213938411665659 0.63472739059967586694
0.56401944894651534490 0.25799416531604535407 0.74537698541329011626
0.70988654781199345134 0.25568233387358185738 0.71506385737439215333
0.85575364667747166880 0.24561491085899517239 0.59106126418152338253
0.11183144246353322881 0.24915850891410046275 0.57870275526742298577
0.25769854132901132138 0.25461199351701779836 0.64461977309562390470
0.40356564019448942782 0.25372576985413286543 0.63390794165316033393
0.54943273905996747875 0.26225218800648297801 0.74227423014586701999
0.69529983792544569621 0.26066580226904373374 0.72128881685575352289
0.84116693679092380265 0.25208946515397079313 0.61413290113452179142
0.12317666126418153061 0.25515461912479736606 0.59600648298217173693
0.26904376012965963705 0.25950016207455434136 0.64874554294975683710
0.41491085899513774349 0.25861717990275528978 0.63803306320907604565
0.56077795786061579442 0.26674619124797410707 0.74228006482982167302
0.70664505672609401188 0.26488363047001617367 0.71741004862236623651
0.85251215559157211832 0.25542625607779578800 0.59930307941653160331
0.16045380875202588933 0.26208622366288492067 0.62485186385737434556
0.30632090761750402352 0.26364149108589951531 0.64380680713128035642
0.45218800648298218547 0.26945283630470018288 0.71819448946515396237
0.59805510534846029191 0.27141393841166938650 0.74461717990275522183
0.74392220421393828733 0.26783792544570506067 0.69643500810372760412
0.88978930307941639377 0.25457957860615881840 0.53337439222042137832
0.20097244732576985404 0.26805575364667744154 0.64216401944894652143
0.34683954619124796048 0.26852706645056723112 0.64793322528363039847
0.49270664505672606692 0.27544959481361425135 0.73840648298217181900
0.63857374392220422887 0.27482139384116693881 0.72985867098865475633
0.78444084278768222429 0.26994165316045376501 0.66524149108589947232
0.08265802269043757977 0.26562787682333871553 0.55644473257698534585
0.22852512155591570009 0.27341004862236628625 0.65206029173419766121
0.37439222042139386204 0.27267228525121556260 0.64299384116693669711
0.52025931928687196848 0.28006029173419771938 0.73996693679092373497
0.66612641815234996390 0.27898476499189622801 0.72520259319286872746
0.81199351701782818136 0.27287325769854126056 0.64546645056726081879
0.10372771474878443587 0.27281166936790923749 0.58859189627228514219
0.24959481361426255619 0.27835721231766613615 0.65701329011345210862
0.39546191247974066263 0.27675397082658020897 0.63722852512155592208
0.54132901134521882458 0.28489270664505672581 0.74463533225283617956
0.68719611021069682000 0.28298606158833061741 0.71821653160453802212
0.83306320907617503746 0.27581847649918961318 0.62568752025931917427
0.12479740680713129197 0.27930826580226908451 0.61250048622366282114
0.27066450567260941229 0.28263533225283626882 0.65372188006482978562
0.41653160453808751873 0.28303468395461917062 0.65866904376012958000
0.56239870340356556966 0.28905218800648291300 0.73997925445705015068
0.70826580226904367610 0.28710858995137755745 0.71278444084278758108
0.85413290113452189356 0.27817698541329005657 0.59848492706645051165
0.14262560777957863922 0.28506061588330627865 0.62734457050243097598
0.28849270664505671791 0.28718119935170172141 0.65372901134521876898
0.43435980551053482435 0.29085380875202587747 0.70191507293354937769
0.58022690437601287528 0.29354878444084275824 0.73998508914100480371
0.72609400324149109274 0.29101847649918960448 0.70424570502431116381
0.87196110210696919918 0.28048752025931927845 0.57045316045380867198
0.15721231766612636660 0.29047260940032409993 0.63806807131280385281
0.30307941653160452855 0.29152868719611019221 0.65126158833063196862
0.44894651539708269050 0.29690113452188010568 0.72367649918962728695
0.59481361426256074143 0.29809918962722853353 0.74076823338735808822
0.74068071312803884787 0.29504894651539709249 0.69726158833063200948
0.88654781199351684329 0.28274943273905994712 0.54159092382495943596
0.16855753646677468227 0.29568103727714750706 0.64631961102106971762
0.31442463533225284422 0.29574651539708268766 0.64714424635332246094
0.46029173419773100617 0.30189367909238246090 0.73067487844408418596
0.60615883306320905710 0.30259448946515393741 0.74077406807131274125
0.75202593192868716354 0.29914294975688815459 0.69105478119935170866
0.89789303079416538100 0.28522852512155588700 0.51519740680713121961
0.17990275526742299794 0.30075267423014589996 0.65292317666126409303
0.32576985413290115989 0.30003306320907618954 0.64385089141004858693
0.47163695299837921082 0.30677017828200969785 0.73611928687196104271
0.61750405186385737277 0.30709043760129656198 0.74078055105348450393
0.76337115072933536819 0.30308589951377634675 0.68251799027552662036
0.04862236628849266051 0.29330178282009722324 0.50116239870340351104
0.19448946515397080859 0.30555980551053479877 0.65622884927066438276
0.34035656401944891503 0.30484278768233380452 0.64715591572123165598
0.48622366288492702147 0.31153322528363047716 0.74000972447325763515
0.63209076175040512791 0.31148006482982171228 0.73923306320907611333
0.77795786061588323435 0.30679870340356557579 0.67190081037277149534
0.05996758508914096231 0.30159870340356559337 0.54817374392220419299
0.20583468395461912426 0.31003954619124790559 0.65541069692058340213
0.35170178282009723070 0.30977957860615878971 0.65211150729335487508
0.49756888168557533714 0.31592479740680706746 0.73846223662884924455
0.64343598055105344358 0.31576726094003243483 0.73613225283630467910
0.78930307941653155002 0.31029951377633707699 0.65871053484602914985
0.07455429497568878683 0.30831247974068065609 0.57539448946515392436
0.22042139384116693490 0.31451993517017823310 0.65459254457050242149
0.36628849270664504134 0.31439092382495947842 0.65294262560777949211
0.51215559157212320329 0.32042139384116691270 0.73846807131280389758
0.65802269043760130973 0.31995526742301455547 0.73147811993517009022
0.80388978930307941617 0.31393841166936786724 0.64716758508914085102
0.08914100486223661135 0.31462236628849271636 0.59767001620745541235
0.23500810372771471779 0.31925899513776340166 0.65707423014586696652
0.38087520259319285199 0.31835721231766611616 0.64552350081037268570
0.52674230145867095843 0.32486742301458665372 0.73769789303079413845
0.67260940032414906486 0.32399611021069690819 0.72449465153970826758
0.81847649918962717130 0.31803500810372770102 0.64139837925445697397
0.10696920583468395860 0.32059708265802266958 0.61582431118314417962
0.25283630470016205116 0.32418800648298212730 0.66203176661264173664
0.39870340356564015760 0.32309821717990278023 0.64800453808752023210
0.54457050243111837506 0.32946709886547809187 0.73925705024311183511
0.69043760129659637048 0.32789432739059970467 0.71518184764991887814
0.83630470016207458794 0.32091799027552669887 0.61995008103727711202
0.11507293354943275154 0.32560194489465149603 0.62160388978930314341
0.26094003241491087186 0.32879481361426254882 0.66286418152350079502
0.40680713128038897830 0.32802852512155589171 0.65296207455429489119
0.55267423014586702923 0.33396369529983793711 0.73926353322528359779
0.69854132901134513567 0.33185542949756891007 0.70664635332252823119
0.84440842787682335313 0.32451669367909236064 0.60757536466774708650
0.12317666126418153061 0.33070858995137758507 0.62821004862236629052
0.26904376012965963705 0.33336920583468393486 0.66286807131280378602
0.41491085899513774349 0.33292576985413291357 0.65709173419773092562
0.56077795786061579442 0.33843824959481361159 0.73848816855753640631
0.70664505672609401188 0.33620291734197726985 0.70354230145867091561
0.85251215559157211832 0.32836499189627221806 0.59767844408427872605
0.12803889789303080082 0.33561880064829818782 0.63234100486223665527
0.27390599675850890726 0.33788006482982169132 0.66204602917341981438
0.41977309562398701370 0.33794294975688815574 0.66287131280388977839
0.56564019448946512014 0.34291474878444083707 0.73771345218800643551
0.71150729335494322658 0.34045575364667746143 0.69888492706645055641
0.85737439222042144404 0.33241491085899510516 0.59025867098865480997
0.12965964343598057606 0.34033646677471635078 0.63399546191247957427
0.27552674230145862699 0.34232998379254458987 0.66039935170178276636
0.42139384116693678894 0.34257957860615878554 0.66369983792544562373
0.56726094003241489538 0.34739124797406800704 0.73693808752025924402
0.71312803889789300182 0.34486094003241490880 0.69655753646677465163
0.85899513776337110826 0.33672220421393839196 0.58613938411669364026
0.13128038897893032355 0.34498995137763371899 0.63482528363046997200
0.27714748784440840224 0.34672025931928690534 0.65792739059967586535
0.42301458670988656419 0.34702949756888168409 0.66205316045380868673
0.56888168557536455960 0.35186969205834683905 0.73616337115072927322
0.71474878444084277707 0.34922074554294968429 0.69345413290113444571
0.86061588330632088351 0.34109756888168557554 0.58284602917341976624
0.12965964343598057606 0.34952025931928687452 0.63400518638573744035
0.27552674230145862699 0.35111377633711499113 0.65545607779578607399
0.42139384116693678894 0.35129724473257700756 0.65793128038897885634
0.56726094003241489538 0.35630081037277150369 0.73461134521880055992
0.71312803889789300182 0.35377568881685578228 0.69345607779578599672
0.85899513776337110826 0.34590534846029169502 0.58532771474878442231
0.12803889789303080082 0.35399092382495950249 0.63235980551053483367
0.27390599675850890726 0.35563176661264178646 0.65463468395461910099
0.41977309562398701370 0.35575299837925444812 0.65628460291734191934
0.56564019448946512014 0.36078119935170177568 0.73383662884927058911
0.71150729335494322658 0.35832998379254454857 0.69345867098865476841
0.85737439222042144404 0.35070988654781204419 0.58780940032414896734
0.12965964343598057606 0.35864440842787687069 0.63318897893030789970
0.27552674230145862699 0.36021069692058343970 0.65463857374392220301
0.42139384116693678894 0.36033128038897888068 0.65628849270664502136
0.56726094003241489538 0.36516952998379254014 0.73150858995137757468
0.71312803889789300182 0.36255818476499190872 0.68802593192868721772
0.85899513776337110826 0.35502949756888169119 0.58369141004862223898
0.12803889789303080082 0.36317730956239868689 0.63236888168557525702
0.27390599675850890726 0.36484991896272284118 0.65546709886547804835
0.41977309562398701370 0.36496920583468395183 0.65711701782820086670
0.56564019448946512014 0.36956110210696913043 0.72918055105348456024
0.71150729335494322658 0.36707034035656394000 0.68725186385737435657
0.85737439222042144404 0.35977309562398701592 0.58534781199351704206
0.12641815235008105334 0.36759286871961094345 0.62989886547811990702
0.27228525121555918753 0.36942884927066449441 0.65547034035656392970
0.41815235008103729397 0.36972447325769852711 0.65959546191247964142
0.56401944894651534490 0.37395526742301454792 0.72685316045380865546
0.70988654781199345134 0.37149238249594812578 0.68492447325769845179
0.85575364667747166880 0.36439546191247967899 0.58535429497568869373
0.12803889789303080082 0.37224635332252831166 0.63072868719611019372
0.27390599675850890726 0.37406612641815228937 0.65629951377633710674
0.41977309562398701370 0.37441815235008102380 0.66124862236628845213
0.56564019448946512014 0.37835267423014579125 0.72452576985413286170
0.71150729335494322658 0.37587228525121552103 0.68182171799027535553
0.85737439222042144404 0.36872414910858991588 0.58123695299837918604
0.12965964343598057606 0.37689854132901129402 0.63155786061588325975
0.27552674230145862699 0.37870210696920580951 0.65712739059967584243
0.42139384116693678894 0.37893484602917337778 0.66042722852512147913
0.56726094003241489538 0.38266450567260934523 0.72064505672609391329
0.71312803889789300182 0.38027358184764986637 0.67939837925445700773
0.85899513776337110826 0.37300032414910855305 0.57629497568881671299
0.13452188006482984628 0.38160777957860614329 0.63321231766612640079
0.28038897893030789721 0.38327974068071313241 0.65713128038897883343
0.42625607779578605916 0.38322204213938410033 0.65630664505672609010
0.57212317666126411009 0.38698087520259322192 0.71676499189627218556
0.71799027552674232755 0.38466385737439218184 0.67692641815235010672
0.86385737439222043399 0.37670599675850890975 0.56310534846029169920
0.13938411669367911649 0.38631442463533227638 0.63486677471636943082
0.28525121555915716742 0.38774327390599672150 0.65548525121555911710
0.43111831442463532937 0.38745737439222038834 0.65136142625607773571
0.57698541329011343581 0.39130178282009725477 0.71288492706645045782
0.72285251215559154225 0.38911507293354946624 0.67527974068071305869
0.86871961102106964869 0.38059967585089138353 0.55239092382495946776
0.14424635332252838671 0.39096272285251210121 0.63569594813614249684
0.29011345218800643764 0.39220875202593191711 0.65383987034035651043
0.43598055105348459959 0.39215235008103727088 0.65301523500810365608
0.58184764991896265052 0.39558573743922198496 0.70822884927066442895
0.72771474878444086798 0.39356823338735813511 0.67363306320907612168
0.87358184764991897442 0.38439286871961103609 0.54002787682333863728
0.14910858995137757366 0.39555397082658022567 0.63570048622366281954
0.29497568881685570785 0.39656401944894653644 0.65054457050243108540
0.44084278768233386980 0.39701329011345215525 0.65714230145867091881
0.58670988654781197624 0.39987487844408431403 0.70357212317666117940
0.73257698541329008268 0.39802333873581841051 0.67198638573743918467
0.87844408427876830014 0.38842658022690440545 0.53096531604538088622
0.15721231766612636660 0.40020032414910861052 0.63652965964343599659
0.30307941653160452855 0.40081231766612640532 0.64560064829821717236
0.44894651539708269050 0.40175753646677470066 0.65961944894651536320
0.59481361426256074143 0.40417050243111835028 0.69891669367909237121
0.74068071312803884787 0.40236888168557527479 0.66869108589951375965
0.88654781199351684329 0.38891280388978927141 0.46912544570502429098
0.16207455429497563681 0.40479092382495940328 0.63653419773095620826
0.30794165316045379877 0.40528687196110207980 0.64395526742301456569
0.45380875202593196072 0.40622366288492700592 0.65797406807131275652
0.59967585089141006716 0.40830599675850892671 0.69115526742301458540
0.74554294975688806257 0.40666385737439220138 0.66457115072933536926
0.89141004862236628004 0.39068784440842785344 0.42543235008103719164
0.16693679092382490703 0.40938282009724474841 0.63653873581847641994
0.31280388978930306898 0.40981717990275523533 0.64313517017828203404
0.45867098865478123093 0.41069238249594808288 0.65632868719611014985
0.60453808752025928186 0.41216401944894648368 0.67859189627228522212
0.75040518638573738830 0.41085445705024303820 0.65880194489465149221
0.02917341977309564904 0.40505283630470018119 0.50049270664505662864
0.17504051863857369997 0.41402463533225281056 0.63736726094003237630
0.32090761750405188968 0.41429692058346834216 0.64149043760129653702
0.46677471636952994061 0.41526936790923818510 0.65633192868719614221
0.61264181523500804705 0.41548330632090763048 0.65963047001620744858
0.75850891410048615349 0.41489335494327383991 0.65056012965964338246
0.04051863857374395778 0.41128233387358187345 0.52441426256077794399
0.18638573743922201564 0.41882852512155593905 0.64067034035656400537
0.33225283630470014984 0.41856272285251217014 0.63654716369529973363
0.47811993517017825628 0.41952868719611019488 0.65138865478119933883
0.62398703403565636272 0.41995656401944891911 0.65798444084278762123
0.76985413290113446916 0.41877666126418144898 0.63984570502431115102
0.05834683954619120788 0.41763565640194488804 0.55080648298217171899
0.20421393841166934902 0.42341847649918962215 0.64067423014586699637
0.35008103727714745546 0.42283500810372764978 0.63160518638573737160
0.49594813614262556190 0.42421588330632087338 0.65304181523500803852
0.64181523500810377936 0.42479935170178279025 0.66211085899513766329
0.78768233387358177477 0.42251734197730955733 0.62665802269043757722
0.07617504051863854819 0.42338606158833058668 0.56812771474878442923
0.22204213938411671014 0.42800842787682336077 0.64067876823338720804
0.36790923824959481658 0.42743144246353320659 0.63160972447325769430
0.51377633711507286751 0.42858541329011340393 0.64974781199351694383
0.65964343598055108497 0.42953192868719608510 0.66458735818476488699
0.80551053484602908039 0.42585607779578604770 0.60687649918962716100
0.09724473257698540429 0.42921426256077793715 0.58709692058346829580
0.24311183144246351073 0.43248816855753646760 0.63903403565640182205
0.38897893030794161717 0.43217698541329008233 0.63408752025931924834
0.53484602917341972361 0.43322074554294975890 0.65057568881685579054
0.68071312803889783005 0.43415429497568874817 0.66541523500810362268
0.82658022690437593649 0.42916239870340355811 0.58627228525121555247
0.12155591572123178312 0.43507487844408426758 0.60688816855753635604
0.26742301458670986181 0.43661782820097244651 0.63161944894651533833
0.41329011345218796825 0.43692252836304701358 0.63656531604538091340
0.55915721231766601917 0.43795332252836299824 0.65305283630470012390
0.70502431118314423664 0.43826450567260938351 0.65799935170178269761
0.85089141004862234308 0.43172317666126414082 0.55330437601296589278
0.14910858995137757366 0.44018995137763367032 0.61513711507293344916
0.29497568881685570785 0.44120777957860612961 0.63162398703403555000
0.44084278768233386980 0.44182366288492702644 0.64151572123176658913
0.58670988654781197624 0.44268589951377634861 0.65552933549432734761
0.73257698541329008268 0.44212836304700164902 0.64646223662884916283
0.03727714748784444199 0.43702625607779571615 0.48820032414910852214
0.18314424635332249292 0.44544764991896274031 0.62585867098865477498
0.32901134521880059935 0.44575235008103719636 0.63080453808752012801
0.47487844408427870579 0.44656272285251208398 0.64399286871961103351
0.62074554294975692326 0.44665996758508907938 0.64564149108589941051
0.76661264181523491867 0.44519481361426255228 0.62173679092382494460
0.07455429497568878683 0.44585607779578600995 0.55662495948136136992
0.22042139384116693490 0.45019967585089137874 0.62833646677471632902
0.36628849270664504134 0.44955137763371144644 0.61762074554294965623
0.51215559157212320329 0.45139902755267424794 0.64811863857374385489
0.65802269043760130973 0.45089335494327387188 0.63987617504051852446
0.80388978930307941617 0.44835202593192868825 0.59783857374392213035
0.12155591572123178312 0.45355786061588332370 0.60773549432739060183
0.26742301458670986181 0.45464700162074556111 0.62586839546191241901
0.41329011345218796825 0.45469238249594812196 0.62669238249594805268
0.55915721231766601917 0.45632609400324147808 0.65389238249594816565
0.70502431118314423664 0.45558055105348455038 0.64152868719611011450
0.85089141004862234308 0.44935688816855745564 0.53767585089141001209
0.17179902755267420500 0.45865348460291732735 0.61598314424635325359
0.31766612641815233919 0.45924343598055100690 0.62587358184764985136
0.46353322528363050115 0.45992414910858991917 0.63741199351701782749
0.60940032414910860759 0.46051410048622359872 0.64730243111831442526
0.75526742301458660300 0.45904894651539707162 0.62257633711507287533
0.07941653160453807092 0.45982042139384116108 0.55747293354943261434
0.22528363047001617736 0.46350275526742296117 0.62010956239870340667
0.37115072933549431156 0.46306191247974065606 0.61269173419773093059
0.51701782820097241800 0.46500032414910852374 0.64565834683954614892
0.66288492706645052444 0.46413160453808749439 0.63082333873581841743
0.80875202593192863088 0.46151896272285247713 0.58631896272285244365
0.13614262560777959377 0.46762593192868712189 0.61187293354943272927
0.28200972447325767245 0.46795656401944896174 0.61764213938411671734
0.42787682333873583440 0.46809918962722851798 0.62011474878444072800
0.57374392220421388533 0.46982366288492705131 0.64978282009724463997
0.71961102106969199177 0.46843630470016200951 0.62588330632090760641
0.04700162074554298935 0.46522074554294973181 0.48991377633711508111
0.19286871961102106110 0.47227423014586711325 0.61270275526742290495
0.33873581847649913978 0.47218346839546193605 0.61105478119935163761
0.48460291734197724622 0.47350599675850890691 0.63412901134521870716
0.63047001620745546369 0.47397925445705024750 0.64237017828200970726
0.77633711507293345910 0.47204084278768226879 0.60858217179902751592
0.11021069692058346745 0.47983338735818475973 0.66462366288492702449
0.25607779578606160165 0.47669562398703396733 0.60941199351701780262
0.40194489465153970809 0.47669562398703396733 0.60941199351701780262
0.54781199351701770350 0.47875721231766615871 0.64567066450567256464
0.69367909238249592097 0.47762917341977306762 0.62589303079416525044
0.83954619124797402741 0.47257244732576980661 0.53689529983792549928
0.17341977309562395249 0.48153192868719613129 0.61353776337115073503
0.31928687196110211444 0.48125316045380872598 0.60859384116693682198
0.46515397082658027639 0.48218022690437600808 0.62507423014586704912
0.61102106969205827181 0.48329529983792540726 0.64485056726094003299
0.75688816855753637824 0.48125316045380872598 0.60859384116693682198
0.08427876823338734114 0.48911701782820088402 0.66710210696920579920
0.23014586709886544758 0.48559027552674233208 0.60365575364667745095
0.37601296596434358177 0.48526612641815231042 0.59788784440842790424
0.52188006482982174372 0.48737309562398700713 0.63579124797406805225
0.66774716369529973914 0.48682852512155588842 0.62590275526742300549
0.81361426256077795660 0.48339254457050240266 0.56410437601296592458
0.14100486223662889174 0.49484149108589953192 0.69042463533225273409
0.28687196110210694266 0.49001815235008094884 0.60036564019448945828
0.43273905996758510462 0.49019967585089135875 0.60366158833063199296
0.57860615883306321106 0.49223533225283627734 0.64073905996758506731
0.72447325769854131750 0.49065348460291730026 0.61190081037277133102
0.04862236628849266051 0.49816726094003238590 0.66546061588330629455
0.19448946515397080859 0.49543792544570497416 0.61520194489465152010
0.34035656401944891503 0.49440713128038898949 0.59625218800648294160
0.48622366288492702147 0.49579448946515392027 0.62179319286871959083
0.63209076175040512791 0.49651410048622363069 0.63497568881685573228
0.77795786061588323435 0.49405056726094004338 0.58966094003241487087
0.10210696920583467451 0.50398249594813615548 0.69120583468395457860
0.24797406807131278095 0.49906839546191245072 0.59708200972447322830
0.39384116693679088739 0.49871183144246350460 0.59049141004862237825
0.53970826580226904934 0.50097439222042139395 0.63250891410048615260
0.68557536466774715578 0.50013160453808747086 0.61685510534846021979
0.83144246353322526222 0.49429043760129659502 0.50810372771474876519
0.15559157212317661911 0.50890307941653156742 0.70051993517017818736
0.30145867098865475331 0.50315915721231763147 0.58720259319286860489
0.44732576985413291526 0.50368427876823329559 0.59708849270664499098
0.59319286871961096619 0.50573938411669372428 0.63580875202593190032
0.73905996758508918365 0.50394359805510535733 0.60203176661264179437
0.05996758508914096231 0.51266320907617501934 0.68029951377633701703
0.20583468395461912426 0.50929205834683954901 0.61604213938411667151
0.35170178282009723070 0.50769076175040517285 0.58556110210696910023
0.49756888168557533714 0.50925316045380875085 0.61521815235008092682
0.64343598055105344358 0.50985607779578601129 0.62675137763371147059
0.78930307941653155002 0.50695818476499188154 0.57155656401944887612
0.11021069692058346745 0.51815429497568887829 0.70440388978930301711
0.25607779578606160165 0.51261782820097245850 0.59133419773095619032
0.40194489465153970809 0.51210567260940031975 0.58144894651539713593
0.54781199351701770350 0.51445251215559151259 0.62675656401944890295
0.69367909238249592097 0.51346709886547814428 0.60781004862236620578
0.01782820097244734031 0.52039740680713131304 0.65312090761750396517
0.16369529983792541206 0.52269886547811994504 0.70440583468395456812
0.30956239870340357401 0.51642982171799023394 0.57569011345218790154
0.45542949756888173596 0.51731799027552671788 0.59298800648298222171
0.60129659643435973138 0.51913322528363048391 0.62840907617504049298
0.74716369529983783782 0.51723371150729335888 0.59134068071312795301
0.07131280388978927798 0.52659513776337119051 0.68656207455429496544
0.21717990275526741217 0.52352220421393835803 0.62429562398703397630
0.36304700162074554637 0.52093549432739061356 0.57322593192868720458
0.50891410048622365281 0.52280907617504046581 0.61029238249594808252
0.65478119935170175925 0.52306191247974065384 0.61523435980551044455
0.80064829821717986569 0.51939254457050243463 0.54274878444084273532
0.12803889789303080082 0.53209918962722857483 0.71294521880064820607
0.27390599675850890726 0.52589497568881682366 0.57982236628849270765
0.41977309562398701370 0.52536337115072928583 0.56911442463533223890
0.56564019448946512014 0.52787228525121554501 0.61935818476499182594
0.71150729335494322658 0.52684149108589950483 0.59876628849270652211
0.04213938411669371220 0.53554813614262553045 0.68191183144246347858
0.18800648298217179089 0.53560648298217183871 0.68346385737439219188
0.33387358184764986957 0.52991442463533222629 0.56747487844408428526
0.47974068071312797601 0.53121102106969197987 0.59383079416531603378
0.62560777957860613796 0.53226774716369529283 0.61524538087520252994
0.77147487844408424440 0.52958379254457055296 0.56088557536466776554
0.10534846029173419724 0.54100032414910859124 0.70751831442463530841
0.25121555915721233143 0.53647520259319281255 0.60701458670988650557
0.39708265802269043787 0.53410243111831434693 0.55842269043760128788
0.54294975688816859982 0.53663079416531600518 0.61030923824959470991
0.68881685575364659524 0.53607325769854130559 0.59877860615883293782
0.02917341977309564904 0.54424829821717990441 0.67290567260940026273
0.17504051863857369997 0.54533095623987037914 0.70131345218800644759
0.32090761750405188968 0.53858217179902756477 0.55513646677471628621
0.46677471636952994061 0.53961296596434360495 0.57654910858995134237
0.61264181523500804705 0.54120129659643434472 0.60949108589951361825
0.75850891410048615349 0.53910081037277146621 0.56584246353322531498
0.10210696920583467451 0.55006353322528356298 0.70674619124797399827
0.24797406807131278095 0.54600518638573736219 0.61361426256077788999
0.39384116693679088739 0.54287390599675844349 0.54773225283630466720
0.53970826580226904934 0.54549303079416533446 0.60290891410048608190
0.68557536466774715578 0.54510405186385735288 0.59467358184764984586
0.03241491085899516483 0.55346709886547806878 0.67455818476499185277
0.17828200972447322270 0.55425153970826579464 0.69588719611021065958
0.32414910858995138465 0.54732771474878438855 0.54362333873581847321
0.47001620745542943558 0.54841037277147486328 0.56668071312803891537
0.61588330632090759753 0.55003111831442452750 0.60126742301458668827
0.76175040518638570397 0.54759999999999997566 0.54938800648298213858
0.11183144246353322881 0.55930178282009723745 0.71140551053484601951
0.25769854132901132138 0.55494521880064828778 0.60786126418152353068
0.40356564019448942782 0.55144440842787678658 0.53210307941653156583
0.54943273905996747875 0.55437471636952995180 0.59550923824959478559
0.69529983792544569621 0.55384311183144241397 0.58398119935170167416
0.04862236628849266051 0.56304246353322529028 0.68424311183144237436
0.19448946515397080859 0.56230988654781199898 0.66714100486223659736
0.34035656401944891503 0.55651410048622362847 0.54033063209076170885
0.48622366288492702147 0.55752544570502426957 0.56256401944894640632
0.63209076175040512791 0.55884797406807129594 0.59138476499189629454
0.77795786061588323435 0.55388200972447321213 0.48268978930307931963
0.13452188006482984628 0.56854003241491091192 0.71294132901134510405
0.28038897893030789721 0.56294521880064829489 0.57902495948136134540
0.42625607779578605916 0.55974910858995130525 0.50821004862236629496
0.57212317666126411009 0.56350275526742299448 0.59137633711507286982
0.71799027552674232755 0.56201815235008101279 0.55843954619124791527
0.08427876823338734114 0.57296790923824958419 0.70750210696920579068
0.23014586709886544758 0.56988849270664510005 0.63006936790923828706
0.37601296596434358177 0.56518833063209072964 0.52467163695299834369
0.52188006482982174372 0.56724991896272281000 0.57078314424635323565
0.66774716369529973914 0.56769076175040511512 0.58066450567260929905
0.04051863857374395778 0.57659837925445689422 0.67699578606158827832
0.18638573743922201564 0.57655948136142631810 0.67617179902755253362
0.33225283630470014984 0.56941523500810375946 0.51396045380875199360
0.47811993517017825628 0.56999870340356562082 0.52713517017828193101
0.62398703403565636272 0.57231961102106965189 0.57983338735818468201
0.00000000000000000000 0.57533419773095628713 0.54194943273905993308
0.14586709886547816195 0.58216077795786069782 0.70748589951377627294
0.29173419773095621288 0.57619643435980549828 0.56171085899513772954
0.43760129659643437483 0.57297439222042145790 0.48760518638573746575
0.58346839546191242576 0.57673452188006479879 0.57406158833063203328
0.72933549432739053220 0.57469238249594811752 0.52712803889789294765
0.11507293354943275154 0.58688687196110200794 0.71213354943273898812
0.26094003241491087186 0.58242658022690430020 0.59793257698541324441
0.40680713128038897830 0.57716239870340346751 0.47524797406807128830
0.55591572123176657971 0.58087066450567259590 0.56170372771474874618
0.70178282009724468615 0.58030664505672613362 0.54852901134521869775
0.09724473257698540429 0.59154813614262546917 0.71445316045380868886
0.24311183144246351073 0.58778152350081025457 0.61439222042139374214
0.38897893030794161717 0.58174586709886544345 0.47194813614262559609
0.58346839546191242576 0.58561620745542941613 0.56334262560777947915
0.72933549432739053220 0.58306839546191258083 0.50323630470016211813
0.13452188006482984628 0.59590470016207452986 0.70590923824959472821
0.28038897893030789721 0.59077666126418160175 0.57486223662884916585
0.51701782820097241800 0.58877990275526748132 0.52710729335494321823
0.66288492706645052444 0.58977828200972437500 0.55098476499189619204
0.07131280388978927798 0.60050113452188014218 0.70590081037277141451
0.21717990275526741217 0.59759027552674226502 0.62672609400324141848
0.48622366288492702147 0.59180745542949753091 0.48675656401944894514
0.63209076175040512791 0.59429043760129651730 0.54686094003241481065
0.05024311183144241494 0.60465024311183146466 0.68881880064829814625
0.19611021069692055607 0.60269886547811979405 0.63824440842787666384
0.34197730956239869027 0.59491280388978928784 0.44722982171799025020
0.65316045380875198401 0.59867293354943273975 0.53944376012965955525
0.08752025931928684999 0.60979773095623979184 0.70976531604538084519
0.23338735818476497030 0.60630988654781192704 0.61271312803889788068
0.58022690437601287528 0.60286742301458662308 0.52708654781199337780
0.03079416531604540694 0.61252058346839544090 0.65222366288492694686
0.17666126418152347521 0.61277990275526728059 0.65881037277147491693
0.32252836304700160941 0.60449465153970816100 0.44968816855753640516
0.05510534846029169209 0.61842658022690433217 0.68724019448946516153
0.20097244732576985404 0.61608622366288490202 0.62504635332252833635
0.64181523500810377936 0.61109432739059965645 0.49743403565640192943
0.12479740680713129197 0.62337309562398712792 0.70120259319286859512
0.27066450567260941229 0.61866645056726099483 0.57152414910858995167
0.08103727714748781841 0.62795656401944888181 0.70041815235008098028
0.22690437601296592485 0.62465024311183137140 0.60609400324149098616
0.08265802269043757977 0.63252058346839545866 0.69885705024311173261
0.22852512155591570009 0.62917536466774703907 0.60279286871961101912
0.08427876823338734114 0.63706515397082652541 0.69651993517017818380
0.23014586709886544758 0.63364862236628838321 0.59784570502431111372
0.08589951377633710250 0.64163565640194486495 0.69495883306320904715
0.23176661264181519506 0.63812836304700171208 0.59289854132901131933
0.09076175040518637271 0.64620615883306320448 0.69339773095623979948
0.23662884927066449303 0.64251734197730947518 0.58548136142625595291
0.09886547811993516566 0.65077666126418143300 0.69183662884927066283
0.24473257698541325822 0.64680907617504046492 0.57477147487844404417
0.11021069692058346745 0.65534716369529988356 0.69027487844408419448
0.25607779578606160165 0.65093225283630462563 0.55912285251215554371
0.11831442463533226039 0.65987876823338742494 0.68638379254457038137
0.26418152350081036683 0.65496466774716366466 0.54018217179902749958
0.12965964343598057606 0.66438444084278769353 0.68094003241491074530
0.27552674230145862699 0.65854327390599676217 0.50724797406807120570
0.14100486223662889174 0.66879935170178272941 0.67516888168557531724
0.28687196110210694266 0.66175883306320903987 0.46196628849270660044
0.15235008103727709639 0.67314943273905991639 0.66692836304700153782
0.01782820097244734031 0.67387552674230144500 0.54509303079416526749
0.16369529983792541206 0.67742820097244726973 0.65621847649918962908
0.02917341977309564904 0.68011215559157200961 0.59447390599675842271
0.17504051863857369997 0.68166158833063217326 0.64386256077795778197
0.03727714748784444199 0.68530502431118300866 0.61175170178282001210
0.18314424635332249292 0.68586256077795781927 0.62986061588330621852
0.04862236628849266051 0.69029692058346847627 0.62326742301458670781
0.19448946515397080859 0.69005056726094005093 0.61503662884927057242
0.05996758508914096231 0.69513970826580229190 0.62984440842787681181
0.20583468395461912426 0.69450437601296588497 0.60844343598055106170
0.07131280388978927798 0.69989821717990263750 0.63395137763371145478
0.21717990275526741217 0.69898411669367899179 0.60267358184764985296
0.07941653160453807092 0.70457893030794160882 0.63558897893030796844
0.22528363047001617736 0.70300356564019450545 0.58044278768233381616
0.08103727714748781841 0.70910405186385738752 0.63146515397082658705
0.22690437601296592485 0.70764538087520256759 0.57961166936790908810
0.07293354943273902546 0.71339578606158826624 0.61911118314424629094
0.21880064829821718742 0.71292252836304703667 0.60182690437601293887
0.05834683954619120788 0.71755786061588322511 0.60099578606158832184
0.20421393841166934902 0.71779773095623988777 0.61004927066450553852
0.03403565640194492620 0.72101329011345216546 0.55572123176661258892
0.17990275526742299794 0.72271183144246342600 0.61991766612641807654
0.32576985413290115989 0.71690307941653164114 0.39882722852512147993
0.14910858995137757366 0.72756758508914087802 0.62813938411669356654
0.29497568881685570785 0.72245251215559158631 0.43061426256077794950
0.11183144246353322881 0.73197601296596437326 0.61907811993517003479
0.25769854132901132138 0.72970048622366290303 0.52936985413290116309
0.06482982171799024640 0.73561944894651543070 0.57874294975688811427
0.21069692058346839447 0.73615105348460296852 0.60014132901134520370
0.35656401944894650091 0.73077017828200974137 0.37694230145867096970
0.16045380875202588933 0.74106515397082650676 0.61083176661264171337
0.30632090761750402352 0.73655948136142612714 0.42483682333873573622
0.10372771474878443587 0.74532447325769857205 0.59436434359805512262
0.24959481361426255619 0.74419643435980542545 0.54663209076175045542
0.04700162074554298935 0.74844278768233374333 0.52769659643435984364
0.19286871961102106110 0.74998573743922203327 0.59435656401944891858
0.34197730956239869027 0.74549951377633716376 0.39879585089141000864
0.14586709886547816195 0.75453030794165321105 0.58941069692058334351
0.29497568881685570785 0.75101653160453807345 0.43387293354943268220
0.09886547811993516566 0.75859513776337117452 0.56224635332252836939
0.24473257698541325822 0.75794035656401947953 0.53262042139384113693
0.39708265802269043787 0.75440713128038894286 0.36116952998379248108
0.20097244732576985404 0.76332123176661270669 0.56470729335494318502
0.35656401944894650091 0.75972965964343597278 0.39440628849270659151
0.17341977309562395249 0.76782690437601297528 0.55647066450567261864
0.34521880064829818524 0.76467617504051854649 0.40577335494327387844
0.17179902755267420500 0.77221588330632084940 0.54247390599675837652
0.35008103727714745546 0.76941523500810371505 0.40401854132901132699
0.22852512155591570009 0.77460162074554295142 0.42643909238249588789
0.37439222042139386204 0.77399222042139370625 0.39089128038897891226
0.16855753646677468227 0.77792090761750409822 0.32877458670988651823
0.35656401944894650091 0.77891928687196110292 0.40225847649918961002
0.13776337115072936901 0.78299059967585082909 0.34888978930307940063
0.32576985413290115989 0.78367131280388979686 0.40137841166936782944
0.47163695299837921082 0.78271831442463535300 0.32789432739059964916
0.29173419773095621288 0.78890307941653170509 0.42477445705024313716
0.43760129659643437483 0.78802787682333863550 0.36200220421393836112
0.24797406807131278095 0.79356434359805516632 0.41489225283630465357
0.39384116693679088739 0.79316239870340354834 0.38473951377633708315
0.13938411669367911649 0.79734392220421401731 0.32436058346839546918
0.34035656401944891503 0.79803760129659639944 0.38648058346839542221
0.48622366288492702147 0.79736337115072919435 0.32611040518638573227
0.28363047001620744769 0.80327585089141007035 0.41734495948136135501
0.42949756888168555413 0.80264051863857366342 0.36284775364667742892
0.15883306320907614184 0.80685445705024316787 0.29721231766612637992
0.36628849270664504134 0.80756110210696918639 0.36808798508914097880
0.51215559157212320329 0.80686094003241493056 0.29808752025931922747
0.29983792544570503358 0.81284473257698519610 0.41074664505672603410
0.44570502431118314002 0.81211215559157212684 0.33482658022690436894
0.15883306320907614184 0.81652706645056716273 0.28143533225283628996
0.37925445705024307674 0.81717536466774698400 0.35494262560777956050
0.52512155591572118318 0.81653354943273914746 0.28231053484602913750
0.31280388978930306898 0.82245251215559156410 0.40393951377633707800
0.45867098865478123093 0.82173290113452168715 0.31730210696920579938
0.16531604538087515954 0.82614132901134518239 0.25340356564019445029
0.39870340356564015760 0.82678962722852500367 0.33829419773095620316
0.10210696920583467451 0.83071183144246352192 0.20262690437601293958
0.34521880064829818524 0.83205380875202605839 0.39167072933549429425
0.49108589951377629168 0.83136661264181499487 0.29539837925445705524
0.28525121555915716742 0.83679935170178265658 0.37590781199351697150
0.43111831442463532937 0.83640388978930302333 0.31464103727714742842
0.12155591572123178312 0.84075397082657998826 0.22272479740680706239
0.36790923824959481658 0.84161620745542964350 0.36889651215559154940
0.51377633711507286751 0.84107163695299835826 0.27699189627228526511
0.30794165316045379877 0.84657568881685563156 0.38639338735818473669
0.45380875202593196072 0.84610243111831440199 0.29798638573743918556
0.14100486223662889174 0.85063403565640194337 0.21919092382495947158
0.40356564019448942782 0.85113322528363044572 0.32423423014586705282
0.54943273905996747875 0.85067941653160439319 0.22794489465153969232
0.35980551053484599588 0.85626126418152337383 0.38112356564019445049
0.50567260940032410232 0.85578152350081049260 0.26644667747163691685
0.33225283630470014984 0.86111053484602917418 0.37848829821717983046
0.47811993517017825628 0.86074100486223648065 0.27606223662884926684
0.31442463533225284422 0.86590794165316053999 0.35834327390599673979
0.46029173419773100617 0.86568103727714762474 0.28305218800648296318
0.14424635332252838671 0.87031636952998370216 0.16659578606158828573
0.45867098865478123093 0.87059513776337116298 0.28303922204213938230
0.16531604538087515954 0.87512025931928671962 0.09633452188006477734
0.46029173419773100617 0.87550275526742304955 0.27952350081037274920
0.14748784440842790944 0.88020940032414918264 0.11572512155591567484
0.44246353322528364505 0.88043630470016220890 0.29089270664505673114
0.12641815235008105334 0.88522722852512158997 0.12013160453808750805
0.42463533225283628392 0.88535688816855728778 0.30751669367909234554
0.10858995137763370609 0.89019967585089154749 0.10089594813614261026
0.41004862236628847327 0.89025802269043763371 0.33289899513776333162
0.09400324149108589544 0.89517212317666117194 0.07684667747163693996
0.40194489465153970809 0.89513322528363037378 0.34602353322528361934
0.54781199351701770350 0.89521102106969197010 0.19627682333873577858
0.40356564019448942782 0.90001491085899498756 0.34513724473257695324
0.54943273905996747875 0.90017698541328994288 0.19450826580226901474
0.40842787682333869803 0.90489659643435971237 0.33987202593192861189
0.10210696920583467451 0.91025802269043765147 0.06292901134521876327
0.42301458670988656419 0.90981069692058358367 0.32584790923824952236
0.11669367909238249903 0.91530178282009733159 0.06383468395461908140
0.44408427876823342029 0.91477666126418155645 0.29868460291734194589
0.14100486223662889174 0.92034554294975690070 0.04903273905996755055
0.47811993517017825628 0.91981393841166925185 0.26100810372771471313
0.18476499189627226816 0.92544764991896266704 0.00374132901134519935
0.53160453808752028415 0.92496142625607780108 0.20580940032414909990
0.46515397082658027639 0.92959675850891421156 0.27587098865478115739
0.42463533225283628392 0.93429043760129637519 0.31878269043760126822
0.16693679092382490703 0.94066320907617484437 0.00000000000000000000
