ply
format ascii 1.0
comment Written with hapPLY (https://github.com/nmwsharp/happly)
element vertex 851
property float x
property float y
property float z
end_header
0.306985974 -0.00605148403 0.658647358
0.570125639 -0.019038355 0.690744758
0.28422603 0.00455165887 0.639797747
0.38467133 0.000338415062 0.757500648
0.602175057 -0.0315355808 0.668580532
0.157296136 -0.0447794087 0.691061318
0.361867845 0.0160183813 0.599648476
0.491839737 0.0443888679 0.71702224
0.676508129 0.0323311575 0.730303109
0.192285046 0.0113254245 0.645837605
0.360068411 0.0679745674 0.591707766
0.495577186 0.0308463573 0.70241195
0.599170506 -0.00283084414 0.650623143
0.183150306 0.0146382572 0.624139547
0.336904585 0.0757352561 0.596785963
0.46566081 -0.0094305696 0.676806927
0.605583668 0.0395031571 0.694072425
0.755063474 -0.0039165481 0.571826756
0.218858406 0.0219861977 0.665178657
0.402921557 0.0291250721 0.697645903
0.529742181 0.0259788278 0.696379483
0.644066751 0.0230123494 0.624421656
0.832458794 0.00912256539 0.522099137
0.287214309 0.0082753133 0.703490257
0.426220536 0.0600303262 0.697317481
0.574004531 0.0236572772 0.707911253
0.722118318 0.0191874392 0.661666036
0.163743943 0.0556208603 0.409592301
0.312193334 0.0245001577 0.674314022
0.445931345 0.020751236 0.706053197
0.568817556 0.0791891143 0.639544666
0.697445631 0.0325065218 0.665337443
0.164320379 0.0210663546 0.392719269
0.297428131 0.036309313 0.653701782
0.437622577 0.0436971113 0.713532746
0.585190356 0.0734074712 0.702820659
0.729479373 -0.00526490947 0.681807518
0.148010805 0.022025723 0.425431043
0.274467885 0.123871885 0.689904153
0.440546334 -0.00280388817 0.690054297
0.585277438 0.0115441279 0.650712967
0.727178693 0.0423836783 0.643553555
0.847541571 0.0112873102 0.499234229
0.272121191 0.0462780744 0.661601663
0.429719388 0.00225029234 0.726221025
0.540237904 0.0790474191 0.688456476
0.71268326 0.047181122 0.678537607
0.854163051 0.038630642 0.544121087
0.262318283 0.042313043 0.646382987
0.391103625 0.055628635 0.726138115
0.482575268 0.0334234983 0.703734398
0.705687225 0.0491895191 0.658233464
0.831782818 0.0539122075 0.546302557
0.217677057 0.0675000399 0.655538976
0.398925662 0.0852122158 0.67288965
0.519968748 0.0580823459 0.689126015
0.66883111 0.0504374802 0.664454341
0.811567068 0.0602918006 0.569988132
0.209809124 0.0416492745 0.602793157
0.245490462 0.0779668316 0.661257267
0.406190962 0.0806889758 0.75241518
0.654966474 0.087123245 0.732053757
0.683082998 0.0892248526 0.651966393
0.158441141 0.0627513379 0.395491093
0.297235847 0.0660108477 0.63499701
0.428160995 0.070244953 0.707444906
0.671004176 0.0731487572 0.697880447
0.71136272 0.0540788136 0.640917897
0.880071878 0.0428637713 0.569066823
0.230043381 0.0959661603 0.60805887
0.379775792 0.080862537 0.619864881
0.54350251 0.064972043 0.680311203
0.69627887 0.0963876545 0.649086654
0.890523911 0.015860064 0.602466941
0.168432042 -0.000401457073 0.479344279
0.344025671 0.0717306137 0.62702018
0.48728019 0.0440165065 0.674156666
0.63675195 0.0749311596 0.695620477
0.826106727 0.127019778 0.644379497
0.934625626 0.0620750599 0.52586776
0.280932903 0.0836866349 0.62222445
0.431236804 0.0932675451 0.679702878
0.571991801 0.0718163922 0.700455785
0.728440523 0.0775284246 0.631298304
0.873116255 0.0689967275 0.574666202
0.243448988 0.0626062155 0.445587784
0.40746367 0.0232314616 0.675725818
0.531795204 0.0885619298 0.696446419
0.672561288 0.0502847806 0.697748125
0.818106234 0.0811620876 0.572065473
0.18508406 0.0561906546 0.397073448
0.366681457 0.148579165 0.637055993
0.469582945 0.063294895 0.68809098
0.588477015 0.146500885 0.735151708
0.763804793 0.0537460037 0.566996872
0.919041455 0.095249854 0.54600507
0.392231524 0.0891473666 0.662397444
0.448646069 0.0790644288 0.652511895
0.619957685 0.194029987 0.750198245
0.726173878 0.0907268971 0.656554759
0.853058159 0.0988816842 0.55949986
0.315122098 0.0956544727 0.57871902
0.427462786 0.0605351925 0.662241817
0.553793192 0.105869889 0.709840894
0.727530479 0.0885212347 0.671534359
0.849526227 0.0894984901 0.574494958
0.224113062 0.0767004192 0.469313383
0.373440981 0.0423530638 0.619293034
0.528088987 0.0929278359 0.725923181
0.66532582 0.12021032 0.684480608
0.803734541 0.106479086 0.49792546
0.973353803 0.0848564804 0.478851348
0.383400023 0.0876402184 0.621594012
0.461114734 0.10755074 0.751888216
0.687455654 0.0722768232 0.73861593
0.807120502 0.0990658402 0.615915775
1.00798166 0.0555188023 0.49266389
0.368861616 0.109230421 0.674190998
0.509235322 0.117264137 0.701675534
0.647160113 0.167354137 0.693823874
0.813508928 0.0916491002 0.639437079
0.94839555 0.0911860168 0.554393649
0.302663147 0.0871591493 0.622407913
0.430104584 0.109431893 0.664865971
0.64357996 0.115078464 0.756042778
0.818708658 0.160119236 0.606600642
0.887746394 0.101128243 0.588994622
0.278590202 0.108787939 0.59155196
0.471352279 0.105964109 0.644971967
0.543315113 0.135354429 0.76858288
0.727064371 0.128142416 0.692121089
0.883871555 0.0423728637 0.601807058
0.269344836 0.118939228 0.555890679
0.386416823 0.144735858 0.535380304
0.543564558 0.143360391 0.726848423
0.695050061 0.152019009 0.731475055
0.817787826 0.107470721 0.566314518
0.253113568 0.112936579 0.432548434
0.36991632 0.100071043 0.657014191
0.567500114 0.168255389 0.712602973
0.673493803 0.0893469304 0.759538829
0.844268143 0.11079888 0.58214581
0.986256063 0.127893493 0.537010014
0.329636097 0.12117894 0.638560653
0.463592589 0.119932584 0.633797526
0.614328086 0.142190367 0.726042032
0.783245623 0.120342411 0.629746497
0.958745003 0.12842685 0.564647973
0.307981521 0.141067594 0.627765894
0.453927428 0.132579952 0.677058399
0.578285635 0.237855703 0.728430986
0.790548861 0.13879858 0.661196351
0.970632315 0.138556853 0.604764342
0.23326984 0.203138784 0.537401319
0.441322893 0.149122164 0.631958067
0.585009277 0.147598401 0.724523783
0.735065877 0.143243074 0.668680072
0.854195893 0.119355008 0.552978635
0.279191196 0.175214097 0.558384359
0.44649595 0.186199114 0.633847952
0.586343288 0.0901970044 0.733200669
0.720679581 0.152264148 0.704106808
0.885857224 0.0736097172 0.571253955
0.285580426 0.161069855 0.472872674
0.40504536 0.189355686 0.649261296
0.520638824 0.155478925 0.718013644
0.751891971 0.19067134 0.757110476
0.814240098 0.145680442 0.62516427
0.930501342 0.154550284 0.610764027
0.328759819 0.155051351 0.639036953
0.470081419 0.158170819 0.678790808
0.54013294 0.160901114 0.812984645
0.830436647 0.13809301 0.61406225
0.973384559 0.154330075 0.589063346
0.29673937 0.142419457 0.545418441
0.422594935 0.183696821 0.614376724
0.551011384 0.189078242 0.729608595
0.69391799 0.181924373 0.698794961
0.832378983 0.101387732 0.52434808
0.975692928 0.148568973 0.494633526
0.316027105 0.16650188 0.643308997
0.472297668 0.188636273 0.65096283
0.648467124 0.185098141 0.75836134
0.781717598 0.159589678 0.674290359
0.92659235 0.158144057 0.50776577
0.242160037 0.154545739 0.536799788
0.35706237 0.212912992 0.577762723
0.525110424 0.171610519 0.746915638
0.638844848 0.14103806 0.790092289
0.802925229 0.145994172 0.628743887
0.961876094 0.166175693 0.538500845
0.274568588 0.181389585 0.583220243
0.42393443 0.175246671 0.681420386
0.55557704 0.167820096 0.736433208
0.742705584 0.156914622 0.771564066
0.880906641 0.163461909 0.574297011
1.00973201 0.12560311 0.49657768
0.260763288 0.164270669 0.562385261
0.474956274 0.190682888 0.623900473
0.602985919 0.201692626 0.739949524
0.73198843 0.179366231 0.675874233
0.877782226 0.1459838 0.603057146
0.136918336 0.234011173 0.57817024
0.228497028 0.248036519 0.552575648
0.466000795 0.185205922 0.676337302
0.60343796 0.172427163 0.747592628
0.750284612 0.18881014 0.669259727
0.955174685 0.10457436 0.54460603
0.202347755 0.228572085 0.583291352
0.32616958 0.185017556 0.633517265
0.49306491 0.171297997 0.662764609
0.619058728 0.205132306 0.73133558
0.765206754 0.18569164 0.665384591
0.902639568 0.217253447 0.551069379
0.203592837 0.161790326 0.554893315
0.325727314 0.243632525 0.665330052
0.463127375 0.186738029 0.627226889
0.606796563 0.181757554 0.747543037
0.749659359 0.184836745 0.60683918
0.940878212 0.149211049 0.543447256
0.183277473 0.189440534 0.572858334
0.32853061 0.188221723 0.642387629
0.47748813 0.168634757 0.72739774
0.61916101 0.214008838 0.724990308
0.800102711 0.187648609 0.643028975
0.967993259 0.223947331 0.508824229
0.169959083 0.184723973 0.575618923
0.384047717 0.164116725 0.636669636
0.463799953 0.201405138 0.697382033
0.593887031 0.205403924 0.725786209
0.761921763 0.238204658 0.680061519
0.856249928 0.216223329 0.526926279
0.171438709 0.174764559 0.641901195
0.371263146 0.158033848 0.669697642
0.478202134 0.190085664 0.692963243
0.624818385 0.206804127 0.731912255
0.75168848 0.280833304 0.639843285
0.882202387 0.212267056 0.533769369
0.15895924 0.187088251 0.566781878
0.319404274 0.207109436 0.642829776
0.468415201 0.21437338 0.70489645
0.591206372 0.195144624 0.721553564
0.734531522 0.195386723 0.670241237
0.909486949 0.169287175 0.554717839
0.173784167 0.185831994 0.521991491
0.326655984 0.241428658 0.658034623
0.462844163 0.217166036 0.706463754
0.581614852 0.268710822 0.734909177
0.762539804 0.202932775 0.650629699
0.887964487 0.184220359 0.567527115
0.132876799 0.222673833 0.625415921
0.275523663 0.23227632 0.635443151
0.404754907 0.203129962 0.706954122
0.609742403 0.23070699 0.723239601
0.745547831 0.248234093 0.70025301
0.896323085 0.204346061 0.509311616
0.161952466 0.226433903 0.592212737
0.304763049 0.22214897 0.637900889
0.429825038 0.154051051 0.725953996
0.566433012 0.130210385 0.730941713
0.7426669 0.220285341 0.688805997
0.907251596 0.249878615 0.546187341
0.185545802 0.254803538 0.667660952
0.202251822 0.24807997 0.657265782
0.431681812 0.244406343 0.659232557
0.56438005 0.239279673 0.759061396
0.727238715 0.218741313 0.692936301
0.881359398 0.210755527 0.552137792
0.0410952382 0.253355324 0.485777617
0.2508035 0.231467694 0.63053441
0.394518912 0.233253837 0.630412102
0.534190655 0.299593985 0.799300849
0.739031792 0.251901507 0.787789464
0.854220569 0.248895168 0.585690379
0.946602881 0.230345815 0.500087917
0.213883132 0.232004628 0.650541186
0.361100703 0.241598159 0.639646769
0.519412339 0.229435325 0.750822783
0.710582197 0.245560646 0.718869388
0.757666469 0.301476747 0.629760742
0.962261796 0.229291782 0.474555701
0.145854533 0.235088721 0.589138389
0.348614395 0.228143394 0.608910739
0.402426511 0.265806586 0.710100293
0.627815783 0.240165979 0.753287733
0.733493984 0.217954576 0.750080407
0.965189397 0.199299425 0.557106197
0.14695169 0.240951911 0.608760059
0.274960309 0.252027541 0.658360183
0.416856557 0.278540105 0.629017889
0.586664259 0.267231852 0.832575381
0.731741071 0.209765792 0.724911213
0.926476836 0.235671207 0.539627314
0.148135781 0.296873122 0.61719352
0.307287961 0.262230098 0.581495821
0.423639417 0.252810478 0.656868875
0.599986851 0.251485407 0.788281202
0.704572022 0.249429986 0.721944928
0.875810802 0.313589871 0.593117774
0.0953118503 0.254687965 0.575256109
0.261021525 0.25339815 0.645731449
0.309648484 0.239879653 0.61999917
0.549146652 0.202375323 0.721071005
0.703933179 0.259833634 0.72316879
0.872737527 0.205106944 0.603855848
0.100154132 0.238137603 0.672031283
0.316920638 0.279623806 0.62321198
0.424379796 0.252243817 0.596367836
0.564550281 0.283664495 0.741157413
0.660792172 0.224289045 0.694166958
0.849190235 0.259593159 0.602818489
0.164382786 0.269593567 0.659602582
0.286920607 0.251090318 0.630595744
0.438089877 0.277292162 0.732396841
0.597082138 0.304250956 0.7143448
0.74674648 0.288291872 0.713963509
0.857740343 0.231236637 0.473556578
0.272200227 0.208310932 0.647888958
0.329942733 0.25649491 0.619660616
0.4753398 0.31194216 0.724257171
0.675873697 0.294652402 0.757578969
0.744500041 0.328751296 0.641090035
0.0766428262 0.261669517 0.552231014
0.238930464 0.319326073 0.589957297
0.374912351 0.271703482 0.643160701
0.519627392 0.300209105 0.752048373
0.613241434 0.254415333 0.728651762
0.817632377 0.260922462 0.63170439
0.00296342955 0.311071754 0.578498542
0.157060057 0.333871335 0.652715862
0.396776736 0.278601885 0.640399098
0.535367608 0.298064351 0.753693044
0.706294179 0.274332136 0.708647013
0.818170309 0.265546292 0.586511552
0.208967716 0.244688407 0.701023817
0.270742178 0.253863811 0.588362515
0.426924467 0.299665272 0.673299134
0.588548779 0.288681149 0.750526249
0.708847821 0.292547613 0.705208361
0.833831489 0.242475092 0.627894282
0.155826211 0.268527597 0.585602582
0.299403429 0.309061617 0.67604506
0.43303594 0.29483974 0.689961612
0.486158073 0.296302378 0.726659
0.740988493 0.310741216 0.788264275
0.890442967 0.293826461 0.563485265
0.149354219 0.281174242 0.63033545
0.302986681 0.306203574 0.663916349
0.462074101 0.253941178 0.761614561
0.603767574 0.300125986 0.74876374
0.765734136 0.267814279 0.720311046
0.877854466 0.293259263 0.553767383
0.146284685 0.221673071 0.581567824
0.318997413 0.292786062 0.642582297
0.490043461 0.373036772 0.744068205
0.58688724 0.296832472 0.706896186
0.752525687 0.299711317 0.701477885
0.945897579 0.249495998 0.58678484
0.174824774 0.285229445 0.667807937
0.345395327 0.263791889 0.640768111
0.462713897 0.275963783 0.732436001
0.62863183 0.297966242 0.684640229
0.757065654 0.333313733 0.684469163
0.0374939851 0.304325759 0.500966132
0.168932915 0.246179357 0.615110517
0.352357239 0.232366607 0.672691405
0.543369174 0.322839648 0.76462549
0.6189605 0.360730201 0.779518545
0.770745456 0.31090486 0.687776029
0.047385864 0.364994735 0.559446692
0.195722431 0.305126846 0.656135082
0.361443698 0.30773586 0.652543724
0.510608733 0.314669073 0.748012304
0.648619473 0.31252709 0.735477686
0.780742407 0.309753418 0.641750395
0.0844166279 0.350104809 0.583699822
0.221619725 0.302027524 0.658087552
0.390764654 0.223385453 0.661005378
0.51541698 0.326447546 0.740112543
0.662532628 0.3175053 0.738237023
0.748773515 0.291166037 0.615002573
0.0958308354 0.336428255 0.605146527
0.214403734 0.277854651 0.659563184
0.42680043 0.282157391 0.675632238
0.515334666 0.354387313 0.742438257
0.674578249 0.325209945 0.72285974
0.818947136 0.324864924 0.633236229
0.133381367 0.324103862 0.615406215
0.225510374 0.332974255 0.671876192
0.477733046 0.367850363 0.611586332
0.597855031 0.289633691 0.790462136
0.722052753 0.335724533 0.7019099
0.862959862 0.339943856 0.639574468
0.115475237 0.325204015 0.621326745
0.308296174 0.315217286 0.623430789
0.430360526 0.350762337 0.666199744
0.576421857 0.351309717 0.729634106
0.718420804 0.352521151 0.742897749
0.856942475 0.334068775 0.573539019
0.133111149 0.373058826 0.626378536
0.273089021 0.337638348 0.658474505
0.391263336 0.29870528 0.686869025
0.561575532 0.340108663 0.73754853
0.66298455 0.371805519 0.711823583
0.843710065 0.322645366 0.612415969
0.148217037 0.325260222 0.687340438
0.245775566 0.292008251 0.695974171
0.426675349 0.369251758 0.655305684
0.612359762 0.392102957 0.74347353
0.736100078 0.33381021 0.693417192
0.863976598 0.331258297 0.5969311
0.130011514 0.355949044 0.643656015
0.287956148 0.3269279 0.64654547
0.438644499 0.373842567 0.724057138
0.615057766 0.372133911 0.763418078
0.719100833 0.361512899 0.699426115
0.872769296 0.343262732 0.632383823
0.0225098021 0.314241201 0.683213532
0.271961302 0.370872647 0.628233314
0.436508685 0.390280753 0.679190218
0.566009402 0.382936567 0.78426975
0.708501399 0.340411127 0.729889274
0.862749517 0.33968544 0.581024468
0.111259833 0.305761874 0.604889512
0.275538296 0.350919724 0.647683918
0.398051769 0.332371891 0.681964576
0.542988479 0.368969142 0.771122456
0.724337697 0.316040367 0.70457077
0.860776961 0.33610025 0.592525363
0.120594144 0.331797928 0.656960428
0.282205611 0.3578462 0.641504705
0.393197477 0.373671353 0.634431005
0.661315024 0.389159977 0.694538593
0.713801205 0.361836612 0.693080485
0.87950933 0.371693373 0.61486721
0.0597228929 0.361870706 0.662769318
0.274968624 0.359191895 0.654883265
0.461096883 0.372168005 0.652645528
0.587131023 0.37360394 0.667944014
0.755390644 0.356698334 0.644260347
0.890376508 0.299455971 0.547983944
0.115575083 0.366428286 0.632096171
0.374578416 0.31800878 0.641832173
0.423536092 0.346224964 0.644879103
0.565292895 0.371752769 0.728895068
0.654517174 0.346661836 0.653565824
0.860541761 0.298239261 0.6035043
0.136990324 0.399454743 0.632292628
0.295162022 0.350694329 0.637935936
0.393193364 0.381469101 0.701244354
0.57480967 0.36816296 0.74607867
0.724291146 0.388327181 0.684229076
0.905333102 0.360376805 0.614047945
0.161862031 0.339444071 0.625383914
0.263830125 0.378173888 0.656193733
0.426302105 0.407721728 0.644033194
0.552021027 0.412674606 0.751699984
0.711078167 0.375861794 0.682190299
0.829683125 0.40417704 0.581095874
0.131941721 0.37606439 0.607583582
0.271454632 0.379932672 0.649833322
0.424605459 0.386267036 0.605868936
0.56600523 0.384289563 0.701014042
0.746639013 0.378812641 0.695036352
0.913377762 0.402340502 0.5782215
0.102978744 0.388356596 0.616577864
0.280406803 0.383003443 0.657599986
0.449341029 0.349830091 0.668245375
0.550225854 0.363722563 0.784950078
0.738103211 0.372205317 0.675404608
0.848523498 0.35255152 0.558350146
0.156029686 0.385379553 0.631872773
0.345509261 0.40743047 0.589331925
0.442003369 0.381251723 0.65010643
0.596592307 0.423502415 0.734707534
0.723660111 0.390028566 0.672136545
0.851617992 0.337780833 0.545220971
0.136927217 0.380956471 0.646290839
0.352625042 0.385435432 0.648549139
0.493137389 0.397350192 0.649417102
0.583367407 0.364189535 0.691575766
0.742860496 0.361893982 0.681974709
0.85046488 0.38170585 0.529443145
0.14907895 0.40789938 0.648572743
0.329995483 0.33784923 0.64200151
0.411474407 0.414135247 0.65697366
0.593839467 0.40637508 0.702240705
0.710169613 0.389490396 0.690289378
0.886370063 0.393066198 0.561286747
0.172036067 0.408783734 0.588158369
0.303404331 0.401975721 0.647180498
0.488492519 0.428558409 0.654188693
0.624868572 0.356193572 0.692540586
0.74870187 0.411335737 0.680418849
0.878713489 0.347475797 0.47353676
0.149229333 0.390584916 0.663739443
0.309328794 0.368942857 0.597010195
0.456267238 0.402429074 0.664907694
0.590382278 0.400294334 0.67677784
0.75044775 0.405503809 0.660954952
0.903833568 0.40518418 0.435983539
0.177481145 0.390387028 0.618978024
0.316393405 0.427289784 0.622931898
0.423817694 0.388120264 0.705833375
0.617866457 0.394162387 0.679554284
0.752453327 0.418421447 0.664214313
-0.00258952868 0.381524563 0.487605572
0.139042377 0.424543947 0.692242861
0.359157562 0.406236142 0.566115439
0.46602425 0.409311444 0.606665492
0.619213283 0.447520286 0.64042592
0.764513731 0.417040437 0.669609129
0.0393127576 0.412344694 0.52148658
0.206792191 0.482804745 0.661890507
0.315336734 0.437365919 0.666594684
0.462777376 0.415145248 0.610402524
0.657815397 0.4886145 0.607461512
0.76427269 0.415698916 0.640080452
0.0356061868 0.402756035 0.54027766
0.220421731 0.383272767 0.634763658
0.381424397 0.398615748 0.688147068
0.516812742 0.398548633 0.648322523
0.684375703 0.4733935 0.660090566
0.792967737 0.424265116 0.636066735
0.232964918 0.388023794 0.632249057
0.371279031 0.426442236 0.635482192
0.516397297 0.426828951 0.647260606
0.678877592 0.436992705 0.666098118
0.806734383 0.416826814 0.590677202
0.253152549 0.408863842 0.653653383
0.386272758 0.433541507 0.633161724
0.558022559 0.421067297 0.646191716
0.685682058 0.431633741 0.648956656
0.795654595 0.398649037 0.591379344
0.265963167 0.43742758 0.631939232
0.414058506 0.433475018 0.62435627
0.541936696 0.439177513 0.639313579
0.65531081 0.446209282 0.608516216
0.855492651 0.420192242 0.554429531
0.288739592 0.431710005 0.637525082
0.435314387 0.467565745 0.632375181
0.568081677 0.415190637 0.687586665
0.734595001 0.504139543 0.621465027
0.0105338665 0.453257799 0.489292383
0.189845085 0.404539198 0.556951046
0.325334519 0.435009748 0.638464928
0.460962206 0.474605799 0.635610938
0.62149018 0.436170667 0.638646066
0.766615629 0.445192814 0.622346878
0.17404826 0.48323828 0.650369346
0.352320552 0.422060758 0.632191062
0.53558588 0.449130654 0.640092254
0.606875539 0.393985838 0.640208304
0.785620511 0.490285575 0.590903997
0.290376902 0.463387161 0.636873662
0.431912065 0.455219269 0.633390188
0.496300101 0.472271085 0.712895513
0.672165096 0.447534621 0.58804512
0.903792143 0.420700878 0.535461783
0.302293837 0.512269318 0.643274248
0.437967807 0.452582747 0.666470408
0.616880894 0.474254876 0.648461998
0.742053449 0.437046796 0.639151096
0.209811077 0.486508042 0.625389576
0.375459939 0.471773595 0.622447908
0.51690203 0.464916468 0.645614803
0.695904791 0.496162176 0.633169889
0.833076417 0.460192412 0.610033631
0.270296097 0.47949633 0.58700633
0.400392145 0.447917104 0.620199978
0.559859872 0.478769541 0.669830918
0.719812036 0.468650997 0.625732422
0.00533832004 0.482635826 0.5155797
0.257549495 0.444968224 0.698654771
0.377335757 0.486032784 0.594275415
0.511327684 0.416723311 0.605507076
0.680998325 0.443126053 0.643492937
0.758699059 0.466675729 0.59995544
0.316055059 0.527564228 0.600332499
0.402434528 0.471512198 0.607332468
0.532760084 0.547027528 0.593237042
0.694163382 0.479625642 0.654181957
0.785229504 0.525333524 0.628763556
0.412687391 0.502715051 0.610548019
0.535272062 0.537597179 0.620630801
0.596628726 0.479796946 0.64901787
0.803584337 0.541304946 0.627678871
0.274490118 0.514863849 0.610590279
0.372997642 0.470084906 0.594122708
0.518872917 0.521254301 0.652470291
0.698390543 0.473403662 0.633598208
0.773448884 0.531875253 0.542294323
0.302931368 0.515254617 0.61739558
0.432372421 0.489804476 0.603675663
0.572079003 0.476240098 0.63219893
0.728912413 0.489858001 0.604006171
0.265890807 0.550798059 0.629971981
0.487962186 0.497270912 0.641784251
0.597019255 0.516451895 0.667646825
0.791566432 0.464863241 0.568765402
0.22676535 0.490919232 0.593875945
0.404031813 0.535986245 0.541596472
0.537062645 0.49101606 0.631048739
0.69637692 0.502137423 0.614293814
0.799136877 0.484011143 0.616308033
0.285474718 0.532798469 0.619956017
0.486072659 0.417710334 0.597226799
0.621743739 0.480028301 0.620883286
0.73753351 0.503754437 0.602137923
0.291962922 0.603672028 0.599892557
0.526379228 0.526124477 0.622867644
0.598914921 0.445868701 0.59591651
0.808140099 0.483319223 0.626103878
0.270262241 0.499172866 0.579437196
0.423472136 0.50671953 0.588390708
0.556820571 0.505519569 0.622486234
0.69601512 0.516463339 0.606105387
0.254499286 0.486208737 0.552055001
0.416703194 0.516191661 0.605471969
0.615689814 0.49110657 0.628875494
0.754431903 0.539293349 0.639718354
0.388796061 0.499145925 0.565811098
0.509536684 0.528546512 0.613336027
0.660323203 0.502738416 0.615209401
0.799503267 0.519308507 0.543179452
0.295841187 0.534437239 0.60341984
0.442335546 0.502016604 0.566622734
0.55046773 0.52671963 0.61616832
0.831503987 0.481782734 0.651250482
0.442439854 0.573804796 0.536821842
0.482889563 0.53632623 0.598236144
0.629489899 0.531724095 0.616470098
0.757517219 0.545043588 0.585722446
0.278110892 0.473081708 0.62297225
0.350217193 0.577769101 0.523694158
0.528361499 0.53054446 0.613017976
0.704057753 0.551277936 0.625673413
0.312836707 0.535275936 0.55252856
0.489233971 0.529926956 0.553289115
0.594618499 0.553610504 0.60747838
0.766992688 0.54833734 0.59794569
0.229711518 0.605979562 0.598249257
0.272688597 0.469614595 0.566622615
0.546255946 0.534635067 0.619051933
0.704782665 0.527517378 0.633812368
0.310419142 0.563448787 0.578715026
0.454152673 0.590997756 0.495089918
0.61063689 0.569301665 0.622653067
0.767920017 0.555527329 0.560923755
0.287254542 0.549886465 0.58720547
0.43173933 0.523881018 0.528662741
0.580661178 0.569345713 0.654961824
0.698041856 0.553788722 0.574073434
0.365790397 0.553024471 0.530313194
0.473581731 0.57641691 0.60940218
0.626314521 0.499455839 0.619789183
0.747632802 0.548113227 0.562093198
0.280121684 0.553665161 0.584183574
0.401093006 0.517451346 0.499186903
0.568444669 0.557202518 0.590208709
0.722145259 0.558729172 0.555882394
0.197799131 0.535020471 0.664203525
0.38128075 0.570744872 0.520477951
0.515166283 0.575312912 0.580690145
0.704810381 0.532345712 0.595092118
0.315228939 0.573037267 0.512557149
0.480015665 0.542501211 0.551314473
0.617730677 0.56110543 0.581462681
0.284256458 0.562212825 0.586853683
0.434646457 0.569704831 0.485241324
0.631004453 0.567560732 0.590810597
0.742629588 0.559022903 0.535033107
0.280387461 0.557796896 0.584490538
0.414967418 0.562553704 0.489331841
0.536270678 0.599114299 0.621725857
0.684025764 0.527447879 0.600861728
0.174252406 0.630785644 0.600772858
0.391845018 0.589511871 0.510688543
0.555323482 0.658429801 0.601968527
0.717583299 0.610326946 0.470594674
0.224196106 0.540771663 0.570908844
0.501081347 0.625874281 0.526900113
0.680736125 0.528411806 0.554937541
0.482847214 0.578468263 0.473951191
0.647066236 0.588165343 0.589694619
0.41138044 0.554947317 0.449753225
0.629377961 0.6282354 0.560416281
0.231160924 0.601417363 0.60118103
0.583781898 0.608334839 0.518109798
0.30223915 0.63570416 0.460049212
0.670555234 0.651369154 0.497892439
0.261479229 0.645308256 0.502740204
0.205896899 0.612266541 0.63717252
0.208323941 0.637965322 0.640488565
0.228931367 0.636334002 0.5949862
0.206521884 0.65270108 0.595992804
0.25743112 0.591409147 0.58664012
0.259946853 0.667933881 0.587140381
0.258024931 0.652746975 0.564166367
0.284235984 0.6504457 0.535152555
0.329807758 0.690834999 0.499254823
0.288740546 0.633547306 0.491746128
0.161565706 0.696733952 0.611951232
0.180101156 0.694647372 0.629439414
0.179928482 0.71619755 0.667620599
0.194607407 0.712170601 0.603935957
0.215001822 0.732863784 0.604258299
0.222923338 0.698448598 0.551911831
0.29421705 0.710717976 0.649823487
0.174862921 0.705559611 0.629442394
0.320700556 0.783991218 0.385761857
0.287465364 0.719671786 0.443189681
0.246605814 0.729079545 0.494814128
0.215769261 0.748881459 0.602695525
0.353238672 0.731277764 0.375530571
0.261323303 0.790938616 0.641225815
0.305334538 0.7314955 0.420873851
0.120832928 0.729854405 0.594218254
0.314204067 0.74694258 0.598290205
0.0534336194 0.750319362 0.530930221
0.244889185 0.863584876 0.540601611
0.34047541 0.746417224 0.401255459
0.150293097 0.756700635 0.588153005
0.295126826 0.750820458 0.434120536
0.0940401107 0.73471266 0.562998593
0.240621224 0.819123685 0.550397038
0.481701374 0.77380681 0.402014285
0.200756013 0.764398336 0.565113783
0.356533229 0.760044575 0.394271523
0.173211798 0.760015249 0.56150353
0.400717378 0.742426217 0.36435926
0.169278115 0.770831108 0.538675785
0.345175534 0.77690357 0.429563761
0.236846149 0.78760159 0.434093863
0.373040646 0.775452614 0.390129387
0.161228582 0.772621989 0.323190123
0.352604628 0.77275914 0.404180527
0.136234984 0.789253235 0.382535487
0.32949087 0.783469856 0.397921175
0.486832082 0.829045594 0.265007973
0.247183189 0.751103759 0.511809766
0.433638006 0.785574913 0.358827025
0.247910529 0.793392301 0.415489078
0.396271914 0.786348641 0.393197
0.132336095 0.787127137 0.406477898
0.363376707 0.809959292 0.413739353
0.407886028 0.779418766 0.319376051
0.250158638 0.872925282 0.409392864
0.446350753 0.884450436 0.380792528
0.186385989 0.744108856 0.327027649
0.362175435 0.809961736 0.371616453
0.514906704 0.821379721 0.320804954
0.338320285 0.7781322 0.327004105
0.405021429 0.824716806 0.365799516
0.15963982 0.792014718 0.265944362
0.4228701 0.795206726 0.340915084
0.526195943 0.875892341 0.268685371
0.315652221 0.878460646 0.351204813
0.457363874 0.822533786 0.314702749
0.156748354 0.826473832 0.238251343
0.43062672 0.842864156 0.345729053
0.119340867 0.836834908 0.20938307
0.37378493 0.895904183 0.358433425
0.49830848 0.800986648 0.315721929
0.276661992 0.841760695 0.384791762
0.432196021 0.83755064 0.312688619
0.119632669 0.837209225 0.217219368
0.356414974 0.815072656 0.347040325
0.524416089 0.859418213 0.274374992
0.280991882 0.864675999 0.413357198
0.393980622 0.903505802 0.427262604
0.101345539 0.877681971 0.10551063
0.392968267 0.855336905 0.370589197
0.565584958 0.862598538 0.23624979
0.333054453 0.832741559 0.357080579
0.530020416 0.884983301 0.238637358
0.264647752 0.88433373 0.406779885
0.473528534 0.857704997 0.270930588
0.268508047 0.85027194 0.346430063
0.455888182 0.865885615 0.290941149
0.145280972 0.915186048 0.167342514
0.454959631 0.867749035 0.283527821
0.176912174 0.85872072 0.1036615
0.463423759 0.839226842 0.320795774
0.167149842 0.929151893 0.0941244662
0.468439609 0.896625221 0.303651243
0.0565667748 0.890385151 0.0843873844
0.348277569 1.01441038 0.341043234
0.0927281231 0.877696574 0.0967575312
0.400419086 0.850298584 0.331895441
0.00859444216 0.902445018 0.0676780269
0.377293646 0.934375942 0.285710156
0.586891174 0.826031625 0.195553318
0.410270602 0.895440221 0.337143987
0.527918458 0.89882648 0.20208919
0.410807371 0.90594995 0.340464652
0.105322063 0.892087281 0.0371144712
0.354697943 0.955928802 0.318561673
0.117453612 0.936954796 0.0839512795
0.522231519 0.968646109 0.318031847
0.13289848 0.918661416 0.0349508412
0.510083914 0.939717293 0.221035182
0.139126137 0.900393248 -0.0570789017
0.497077197 0.912556291 0.198147491
0.464706242 0.929220259 0.274716526
0.387839854 0.95050472 0.341505617
0.161369383 0.944078803 0.00812450051
0.466363221 0.918741405 0.270486593
0.479129702 0.954285502 0.260544211
0.475262403 0.93824625 0.281707019
0.404751748 1.03564513 0.26981914
1.40539944 1.35159028 0.82233721
1.66908932 0.37837851 0.644166231
0.704538107 0.481582969 1.47111094
1.46630049 1.41184068 0.929676175
0.967984676 1.26029038 1.42447281
1.84299624 1.60330844 1.37846971
1.02322459 0.881977975 0.935412228
1.41469634 1.48827755 1.48008227
0.818533659 1.06798077 1.54537475
1.48318863 1.28565156 1.82333744
1.53122413 1.29037523 0.782528698
0.978891373 0.552563787 1.07995784
0.678436756 1.64498341 1.53274596
1.54840672 1.07711649 1.29410923
0.770637751 0.565202177 1.06475377
1.76777494 1.02051711 0.841143847
2.01370692 1.07931995 0.905427814
1.11593509 0.536502779 0.99143666
0.996227622 0.852236271 1.15965784
1.68440163 1.71821678 0.879108369
0.909570634 0.83284986 2.22341156
1.3896395 1.02874625 1.18081617
0.717859626 1.11882377 1.4747566
0.887604654 0.567984104 0.984703243
0.643434107 0.413696736 0.848633289
0.858928442 0.403628469 1.10056996
0.763962865 0.533382595 1.16127706
1.07119286 0.630050838 0.654305279
1.09789538 0.925988913 1.30008817
1.00342369 0.796508968 2.09106803
0.906841636 1.55236328 1.05431139
0.626281142 1.01488853 1.34864044
1.00966716 0.521144331 1.4663173
1.98805296 1.33637238 0.884504735
0.81911236 0.913781166 0.852135599
1.12003446 0.682009816 1.22355831
0.532606304 1.5880506 1.68910921
1.0275414 0.385540277 1.24216616
1.41243994 0.555380642 1.86058235
0.607873082 1.01026082 1.30808926
