ply
format ascii 1.0
comment Written with hapPLY (https://github.com/nmwsharp/happly)
element vertex 894
property float x
property float y
property float z
end_header
0.260470122 0.00210911687 0.616485
0.495990872 0 0.788917303
0.25555262 0.00690923445 0.615156889
0.344739586 0.0113618551 0.749168575
0.491901368 0.00508425292 0.792136371
0.164092377 0.0125169558 0.550876021
0.288794637 0.0102432352 0.626881182
0.376344293 0.014499722 0.7575351
0.520151198 0.00884866063 0.805438399
0.162413925 0.0167523995 0.544783652
0.286190361 0.0146434139 0.622150719
0.371038914 0.0193408374 0.756777108
0.515697002 0.0135602225 0.803428769
0.162976965 0.0188944116 0.512334406
0.268707454 0.0199033543 0.616244674
0.352829605 0.0247023534 0.751939058
0.499140233 0.0186470058 0.796160221
0.686209798 0.00604771636 0.786196589
0.182579353 0.027578311 0.584475875
0.291895479 0.0279777218 0.683112264
0.410681129 0.0267384723 0.767820299
0.550206363 0.0219084695 0.822022915
0.750324607 0.00671686605 0.787103057
0.21397005 0.0312405527 0.598923326
0.309536517 0.0340122208 0.717783689
0.444964945 0.0298718084 0.778011799
0.582059264 0.0254983678 0.835790634
0.24050115 0.0147816138 0.332276076
0.233817682 0.0347683839 0.601524293
0.321229249 0.0389094129 0.732378721
0.463326633 0.0336333588 0.782797992
0.600518465 0.0292684641 0.840433836
0.24361214 0.0196107477 0.336436659
0.239711791 0.0389899053 0.601588905
0.325711757 0.0433352888 0.734518886
0.468759209 0.037919458 0.783541143
0.606412649 0.0334951766 0.840498507
0.241559491 0.0236483831 0.325132817
0.232578978 0.043738436 0.59775418
0.323860079 0.0471470319 0.722915828
0.461627066 0.0426550582 0.779705167
0.596503973 0.038713377 0.840746462
0.79475224 0.0241854899 0.808583558
0.21962598 0.0486319102 0.590950012
0.316651165 0.0510352738 0.707662642
0.448212534 0.0476124585 0.773579597
0.582163274 0.043840073 0.835983336
0.764217913 0.0320850536 0.827638626
0.204457298 0.0534815714 0.581639826
0.308515847 0.0546677448 0.688007236
0.431681275 0.0526749603 0.766273201
0.56699425 0.0486903749 0.826673687
0.743032694 0.0379949659 0.827178419
0.185877576 0.0576759428 0.560052633
0.304102391 0.0565082505 0.645585001
0.404997945 0.0582024939 0.756604016
0.537315071 0.0547031835 0.821410418
0.718437076 0.0432366319 0.814439952
0.186083645 0.0576202385 0.493544102
0.283960879 0.0597599 0.609001219
0.367649943 0.0642699376 0.745325804
0.494757861 0.0616170913 0.81779325
0.657596588 0.0531651564 0.837712348
0.251216441 0.0463485718 0.320022851
0.248287469 0.0647468939 0.583731055
0.334143728 0.0688529387 0.716867447
0.459061712 0.0665726289 0.792555869
0.606200337 0.0607056804 0.835565388
0.772979736 0.0516895764 0.849690437
0.208085835 0.0700653717 0.559355915
0.3184506 0.0701514557 0.65644747
0.423753172 0.0710523799 0.760983706
0.550739825 0.0684684142 0.833630502
0.729538381 0.0575753488 0.830080688
0.277097464 0.0575885437 0.368605435
0.291753739 0.0729121342 0.606447339
0.382261664 0.0761532485 0.732740521
0.491847426 0.0764243603 0.83097887
0.662150741 0.0668736696 0.83992213
0.833548129 0.0572242029 0.847257853
0.252204984 0.0773491934 0.569583476
0.339916766 0.0809968039 0.699988008
0.447677284 0.081551142 0.800910413
0.600409567 0.0748323202 0.835694611
0.759320736 0.0672144368 0.861393511
0.309645087 0.0669444948 0.395854622
0.329399526 0.081233345 0.626194835
0.409252018 0.0861392468 0.768157542
0.533294141 0.0840173066 0.845134377
0.720599234 0.07194601 0.829078078
0.28756097 0.0691650659 0.339074552
0.286981523 0.0865151435 0.599314809
0.382093489 0.088935338 0.718835592
0.479097962 0.0911912695 0.835575819
0.651367426 0.08144366 0.841629803
0.811660588 0.0736948773 0.865298092
0.260457695 0.0904744565 0.566354156
0.359731495 0.0922222063 0.679754317
0.442575246 0.0966745466 0.817318439
0.594797194 0.0900604278 0.852853477
0.761559248 0.081353277 0.867009819
0.257589579 0.0923212841 0.521664083
0.349931538 0.0951114073 0.645257115
0.424652785 0.100738496 0.794764042
0.563735366 0.0962138325 0.849622071
0.741125822 0.0859231651 0.848150194
0.316190451 0.0848252699 0.386585146
0.334583372 0.0988770947 0.618919075
0.404978156 0.105093211 0.774786711
0.525953352 0.103476219 0.856274188
0.712834358 0.0916975588 0.840845823
0.88097769 0.0828815475 0.852972925
0.313491881 0.10422074 0.612553716
0.39196229 0.109136969 0.756544948
0.505490005 0.108711042 0.848984838
0.679726422 0.0988793075 0.8521505
0.844176352 0.0906537771 0.869709253
0.291570008 0.109314531 0.60164535
0.37801972 0.112948284 0.733901858
0.481034338 0.114180788 0.84180218
0.649021626 0.105306119 0.854157269
0.809315503 0.09773691 0.877827883
0.27427128 0.113708898 0.583938777
0.372616947 0.115511194 0.698702097
0.456578642 0.119640172 0.834619403
0.613691688 0.112418704 0.862964749
0.77953738 0.104035258 0.878472149
0.264833301 0.116924725 0.554673493
0.373811275 0.117115669 0.653802276
0.439131916 0.123994157 0.817129314
0.580694914 0.11916469 0.868341267
0.759929299 0.108793959 0.864161611
0.272044599 0.117660806 0.500926673
0.36298731 0.120545276 0.626575112
0.419495136 0.128694102 0.802859843
0.55711484 0.124501377 0.859871089
0.743095815 0.113137417 0.845771313
0.326161981 0.110705018 0.366681039
0.330621332 0.126467228 0.619496346
0.398004979 0.132925287 0.779787719
0.519418299 0.131244659 0.860630929
0.694083154 0.121552743 0.863170445
0.860404551 0.113179468 0.877979875
0.30185765 0.13220945 0.612884343
0.380506873 0.136931241 0.756609499
0.492284656 0.13672094 0.851621687
0.659770012 0.128120273 0.864718556
0.821470439 0.120460704 0.886323154
0.27910614 0.137055382 0.597431958
0.371890306 0.139614075 0.720371664
0.464713871 0.142253041 0.843255043
0.624066353 0.13487947 0.868310928
0.790396333 0.126560122 0.883108735
0.266165882 0.140096009 0.561789393
0.373750776 0.140457869 0.662965953
0.441471457 0.146756217 0.822759688
0.583029509 0.14205502 0.873981297
0.766357064 0.131253257 0.863786459
0.272196651 0.14036797 0.49825263
0.358961165 0.143776178 0.630042791
0.411660194 0.152242869 0.811923385
0.553217232 0.147566944 0.863146961
0.736765981 0.136761934 0.852627397
0.273071438 0.140002772 0.419242889
0.32113713 0.150117204 0.625225306
0.388366371 0.156394765 0.785739899
0.513282895 0.154201925 0.861432135
0.682749271 0.145478472 0.871619284
0.848167121 0.137373999 0.887759805
0.277784139 0.155472875 0.599718869
0.371945679 0.15776515 0.720632076
0.459080517 0.161108106 0.851877689
0.621812761 0.153392956 0.871966898
0.79232502 0.144574523 0.880617321
0.270092607 0.15388979 0.492959648
0.352219403 0.157909736 0.631567776
0.406373411 0.165992483 0.811305761
0.545300663 0.161776036 0.86639756
0.722161591 0.152064264 0.865713656
0.894992948 0.142939359 0.870954871
0.275138468 0.164613649 0.598016858
0.370220751 0.166741073 0.717575669
0.455994368 0.17020227 0.850821197
0.617775142 0.162713066 0.872311115
0.791999876 0.153418541 0.875504017
0.24926722 0.162894547 0.471880227
0.31796357 0.168799415 0.630234659
0.387549639 0.174553856 0.78728044
0.508087039 0.173007607 0.869411767
0.680964291 0.163960502 0.87458694
0.847788334 0.155761808 0.888661861
0.259625584 0.170360059 0.528780639
0.362572342 0.171331659 0.636775672
0.415355623 0.179437891 0.818525791
0.555155873 0.175164148 0.872335315
0.738534927 0.164639279 0.862070024
0.921102524 0.15421471 0.852997601
0.266110152 0.177308068 0.574085712
0.369981021 0.178137571 0.680721819
0.439066112 0.183857515 0.838502228
0.593000293 0.177618399 0.871531487
0.783444643 0.166108176 0.850878477
0.210789949 0.176060498 0.42785123
0.272525698 0.182860181 0.596437931
0.364819944 0.18532227 0.72009486
0.455126882 0.187984198 0.846672118
0.614691854 0.180981249 0.871423125
0.796345472 0.170760497 0.86369592
0.207784429 0.181935951 0.446765155
0.276923537 0.187654123 0.604466259
0.360999018 0.191227332 0.740206063
0.462714016 0.192277551 0.850010335
0.624181151 0.185044348 0.871965408
0.803525746 0.175186634 0.86763376
0.202098846 0.187834755 0.463855982
0.279568404 0.192350075 0.609308481
0.360654116 0.196298406 0.749443173
0.467622161 0.196607202 0.851523995
0.630066156 0.189275458 0.87204355
0.808953404 0.179517373 0.868385017
0.194295809 0.193336755 0.472532898
0.278245002 0.196917877 0.608458221
0.358891279 0.200893506 0.749238372
0.466297865 0.201126352 0.850674212
0.628742039 0.193837389 0.871194303
0.809487581 0.183852956 0.864804208
0.188807398 0.198508263 0.477806717
0.276921958 0.20148629 0.607607424
0.357128829 0.205487296 0.749032974
0.464973509 0.205645546 0.849824429
0.626954496 0.198463231 0.871026278
0.810021758 0.188191146 0.8612234
0.183781534 0.203609973 0.482400268
0.275135577 0.206118613 0.607437909
0.355803847 0.210022032 0.748184443
0.463211358 0.210223109 0.849618316
0.624703586 0.20315364 0.871539533
0.811019659 0.192467362 0.856960893
0.178392813 0.20842135 0.481764019
0.270670205 0.210784659 0.605443776
0.353550851 0.214360535 0.742937267
0.457895637 0.214949355 0.848873258
0.616994321 0.208261102 0.874314547
0.810729027 0.196588218 0.848829508
0.174292237 0.21338813 0.484997183
0.268420458 0.215480268 0.605955482
0.352663308 0.218840078 0.741445661
0.456133842 0.219523698 0.848666549
0.611499906 0.213394269 0.879596472
0.812191427 0.200806409 0.84388423
0.169366091 0.218132362 0.483680665
0.263955086 0.220145002 0.603961349
0.351722777 0.223015592 0.734269142
0.449942797 0.224357769 0.849208236
0.602862358 0.218620464 0.883735955
0.811902344 0.204935014 0.835750759
0.161399588 0.222627133 0.475307733
0.255985945 0.224624813 0.595591962
0.350675851 0.226594195 0.715723693
0.437082082 0.229423538 0.848028839
0.587374747 0.2240628 0.886418939
0.796988368 0.210402563 0.837592363
0.150032029 0.226597056 0.454645514
0.243689016 0.228705645 0.576295733
0.355884343 0.228293344 0.670691311
0.417498648 0.234417066 0.839443564
0.564726949 0.229481608 0.88233906
0.75781703 0.218172655 0.857806921
0.153907418 0.227197483 0.388521135
0.214653179 0.233744845 0.55855602
0.334263474 0.232324407 0.642050326
0.395514369 0.238497317 0.811336815
0.526114881 0.235685349 0.878675461
0.703291655 0.226681471 0.877541423
0.898452461 0.215033248 0.849964023
0.183402091 0.238755763 0.538309991
0.298376858 0.237958759 0.628619194
0.368663043 0.242899582 0.784622133
0.487012655 0.241625458 0.869969428
0.655817211 0.233882159 0.881146312
0.854230165 0.22184056 0.848788559
0.161783427 0.242797926 0.509665847
0.267949432 0.243179932 0.612925231
0.348427355 0.246790797 0.753945589
0.457152277 0.246701911 0.853440523
0.610090911 0.241154149 0.887943864
0.839571714 0.224989861 0.809912741
0.143307909 0.246751547 0.482164234
0.243909016 0.247868508 0.593604505
0.346828431 0.248675704 0.701636553
0.425158501 0.252326548 0.845809877
0.571069777 0.247681737 0.890643716
0.773813128 0.235304609 0.851924181
0.134260908 0.250425369 0.458090723
0.224195272 0.25294894 0.585212171
0.351687968 0.250478029 0.657118261
0.409950286 0.256774575 0.830793262
0.547548652 0.253165573 0.887846708
0.737875283 0.242570877 0.867383778
0.130108878 0.254101455 0.438347191
0.213548273 0.257467031 0.575016618
0.340114266 0.255122572 0.64828521
0.399661452 0.261212349 0.820070565
0.532010019 0.258252144 0.884840965
0.712855756 0.249010056 0.878317773
0.129764393 0.259834707 0.459110081
0.22062023 0.262200624 0.58487612
0.347186595 0.259859443 0.658144295
0.409051895 0.265585601 0.826520681
0.54358691 0.262381166 0.888077617
0.730595946 0.252348036 0.872494161
0.144353062 0.266133726 0.504023135
0.254222572 0.265987009 0.601837099
0.332893282 0.269640833 0.745510578
0.438559085 0.269838601 0.849500537
0.586215019 0.265112251 0.89177233
0.798523545 0.251647532 0.838994265
0.168111175 0.271531045 0.541218877
0.285401642 0.27040872 0.628123403
0.355018497 0.27504164 0.785102904
0.480366886 0.272937387 0.860162973
0.637272656 0.267042339 0.888837576
0.118603922 0.271061331 0.403738707
0.185328513 0.27651158 0.564978302
0.310968518 0.274302065 0.639608443
0.376926988 0.279347003 0.801964819
0.505774319 0.276846588 0.871882379
0.67118907 0.269843996 0.888048172
0.117941245 0.277757168 0.442257583
0.199970692 0.28119427 0.580997586
0.331643045 0.278207332 0.646759927
0.391728967 0.283917308 0.817747474
0.527135968 0.280681521 0.878024101
0.699750543 0.272727966 0.883605421
0.121915154 0.283833593 0.473960012
0.219252869 0.285275698 0.590195835
0.337005973 0.284088105 0.676420152
0.411779135 0.287891299 0.825816512
0.547622979 0.284624904 0.885451436
0.732490122 0.275086254 0.873020828
0.128312007 0.289274544 0.496337622
0.233999997 0.289632082 0.600297987
0.327417046 0.291362524 0.722293258
0.426526815 0.292198479 0.835916936
0.567180037 0.288415581 0.888483822
0.763017833 0.277437717 0.859925389
0.134349287 0.294443399 0.513480783
0.24746123 0.293844789 0.606527627
0.327241063 0.297076046 0.748565376
0.438158363 0.296587408 0.844835281
0.583183467 0.292348385 0.890977263
0.791334391 0.279781759 0.844317913
0.139099181 0.299463362 0.526753664
0.25917244 0.297975838 0.609567225
0.332695782 0.301890403 0.760799944
0.447548807 0.300962001 0.851285398
0.596070826 0.296372712 0.892288685
0.81558305 0.282357067 0.828927994
0.144776568 0.304360032 0.53866297
0.270419925 0.302168727 0.613288522
0.33902511 0.306601495 0.77174896
0.456938863 0.30533725 0.857736111
0.610269666 0.300265104 0.89167279
0.121724732 0.299547404 0.33924675
0.154988632 0.308984995 0.549668968
0.280632377 0.306796253 0.624293983
0.348907709 0.311177552 0.783237576
0.46988222 0.309584558 0.864726484
0.628317773 0.303910136 0.891160131
0.104660191 0.307337344 0.38458699
0.164843008 0.313350767 0.555438042
0.287237227 0.311571687 0.634839833
0.359172434 0.315461159 0.788402915
0.481021285 0.313776553 0.868606865
0.645135343 0.307398647 0.886693358
0.101412609 0.313672423 0.415378809
0.177376017 0.317682862 0.56303221
0.298842013 0.316021144 0.64379853
0.37124151 0.319802701 0.796678185
0.495713264 0.317847729 0.873027623
0.663704455 0.31097737 0.88541472
0.100948207 0.319644243 0.442079127
0.188051835 0.322246492 0.57335645
0.31509015 0.31989339 0.645931721
0.383747339 0.324100018 0.804311633
0.511716366 0.321790934 0.875521719
0.679023981 0.314966351 0.888912857
0.105481818 0.325280398 0.467194855
0.200012788 0.326945364 0.587554157
0.328444958 0.324424595 0.658080578
0.397620678 0.328497529 0.815696895
0.531709313 0.325576276 0.877914369
0.705846667 0.317836195 0.881264806
0.108944364 0.330151439 0.476597339
0.206259593 0.331459016 0.59286356
0.332370073 0.329227895 0.666802824
0.404332161 0.332907736 0.820322454
0.543228865 0.329521179 0.875474691
0.719526768 0.321450233 0.875648022
0.1119418 0.335117489 0.486684114
0.212972835 0.335947067 0.597487986
0.336761266 0.334004879 0.67484051
0.411483824 0.337302357 0.82430172
0.551691413 0.333807886 0.877528012
0.731812596 0.325293571 0.872081935
0.113653712 0.339941829 0.492897928
0.217472345 0.340412736 0.599603951
0.337545246 0.33892262 0.682417989
0.415956527 0.341733247 0.826456368
0.558349669 0.338047057 0.876471519
0.74002564 0.329352438 0.868740201
0.114080817 0.344628274 0.495237768
0.219757363 0.344858617 0.599212587
0.33843714 0.343534827 0.684074342
0.417750984 0.346198559 0.826785326
0.561017811 0.342453778 0.87551707
0.743702471 0.33367604 0.866303861
0.114972085 0.34925738 0.496895432
0.222506881 0.349251598 0.598138511
0.340722144 0.347980678 0.683682978
0.419545084 0.350665748 0.82711482
0.564122796 0.346821457 0.873920858
0.746914506 0.338060826 0.864550889
0.114113323 0.353811175 0.495362967
0.222577453 0.35368222 0.595239878
0.341721714 0.352299064 0.679418862
0.419098139 0.355126411 0.824976265
0.562801301 0.351393133 0.873067975
0.744197547 0.34286499 0.865750253
0.113719113 0.3583121 0.49314779
0.221719399 0.358223706 0.593706191
0.341328144 0.356785148 0.677202463
0.418213636 0.359629929 0.823480666
0.56147933 0.355964184 0.872215629
0.741480589 0.347665906 0.866949618
0.114610709 0.362941206 0.494804859
0.223075464 0.362785012 0.594680369
0.342684209 0.361345768 0.678176582
0.420882106 0.364019811 0.822525501
0.565895557 0.360219419 0.868692935
0.745156765 0.352001756 0.86451453
0.113752015 0.367497623 0.493272454
0.22128877 0.367434174 0.594511628
0.340897501 0.365993679 0.678007841
0.420871973 0.368447274 0.819745243
0.565010786 0.364754736 0.867198288
0.742904305 0.356748492 0.865031183
0.113821946 0.371950239 0.490375191
0.21996659 0.372029871 0.593660116
0.338182151 0.370745331 0.679203868
0.420861512 0.37287733 0.81696558
0.565000415 0.369212687 0.864418924
0.741580427 0.361387581 0.864182949
0.114713185 0.376579285 0.492032796
0.220858127 0.376642734 0.595317006
0.338609904 0.375407845 0.681542337
0.423529655 0.377276301 0.816011071
0.568105161 0.373600453 0.862823546
0.745256305 0.365732521 0.861748457
0.115604773 0.381207108 0.493689835
0.221750408 0.381254315 0.596972764
0.340430468 0.379913718 0.681833804
0.427072167 0.381602407 0.813771904
0.570827365 0.378004104 0.861789763
0.749396324 0.370031714 0.858631909
0.118710503 0.385850787 0.497854739
0.225785047 0.385779947 0.599772096
0.346786588 0.384182811 0.681221247
0.433292955 0.385898679 0.813358486
0.5762555 0.382362723 0.862540841
0.760857165 0.373793811 0.850517988
0.121816181 0.390491903 0.502019584
0.23074837 0.390205055 0.601206601
0.35360685 0.388406813 0.679926634
0.439513773 0.390199512 0.812945127
0.581219077 0.386775523 0.863974631
0.770924926 0.377723545 0.844451845
0.125386357 0.395081431 0.505501747
0.235711336 0.394632101 0.602641642
0.356712878 0.393036276 0.684090793
0.446171433 0.394469768 0.811890066
0.586182773 0.391190261 0.86540848
0.781920671 0.381566316 0.837022066
0.129420757 0.399620682 0.508301735
0.241602987 0.398962528 0.602711916
0.35842678 0.397811323 0.690300822
0.45282948 0.398745239 0.810834527
0.59114641 0.395606905 0.86684233
0.791058779 0.385622561 0.832322657
0.135669544 0.404173911 0.513608992
0.251101196 0.403165132 0.603243649
0.363747954 0.402448922 0.696971059
0.462165445 0.402992815 0.811605275
0.599716604 0.399893224 0.868737578
0.832581818 0.386530519 0.785792172
0.139703885 0.408712476 0.516409039
0.256064206 0.407601237 0.604678869
0.368710905 0.406876594 0.69840616
0.47057122 0.407140076 0.807982326
0.606072426 0.404170126 0.868125677
0.861212432 0.388612598 0.752448022
0.143738225 0.413252413 0.519209027
0.260562688 0.412086308 0.606796682
0.373673886 0.411306918 0.699841201
0.481680036 0.411049366 0.800387859
0.613356531 0.40835616 0.866149664
0.106492497 0.411500096 0.329167783
0.1499874 0.417801082 0.524515748
0.268203974 0.416493267 0.610057592
0.380387515 0.415797502 0.704465151
0.49906823 0.414438099 0.78932482
0.624711037 0.412376463 0.86395365
0.1024222 0.417412341 0.355402112
0.157522306 0.422457188 0.533694386
0.280380487 0.420679003 0.612415254
0.392564029 0.419976771 0.706822693
0.509388804 0.418804228 0.794409752
0.640135944 0.416227102 0.861537576
0.102318272 0.423359454 0.387329817
0.17227143 0.42685768 0.543794394
0.297913522 0.424802482 0.618424356
0.406384796 0.424461007 0.718286812
0.521817446 0.423423707 0.807919502
0.662310302 0.419886738 0.860726357
0.10732013 0.428778142 0.41175431
0.187020198 0.431258202 0.553894997
0.312662333 0.429209501 0.628525019
0.422990203 0.428668171 0.725658894
0.535174727 0.427946538 0.820064545
0.688196242 0.423198581 0.854461312
0.114072882 0.434226751 0.439366698
0.205375895 0.435527712 0.564456463
0.328697562 0.433710903 0.642496407
0.439954102 0.433072954 0.738265514
0.552138627 0.432338327 0.832670987
0.717223942 0.426450431 0.849341214
0.123041414 0.439666599 0.469483912
0.229658008 0.439460158 0.572070837
0.347411424 0.438177943 0.658292949
0.458668292 0.437527061 0.754061341
0.57642138 0.436251402 0.84028405
0.755889654 0.429023921 0.835820377
0.141185462 0.44442144 0.491879106
0.252442598 0.443757564 0.587646842
0.36741209 0.442745954 0.67795974
0.480061412 0.441946834 0.771681786
0.605702519 0.439917535 0.846313655
0.120243609 0.443485647 0.323980987
0.163294852 0.449229866 0.519969583
0.281048268 0.447947681 0.606191635
0.394162118 0.447103471 0.699231088
0.513771474 0.445640892 0.78272593
0.647764504 0.442825884 0.845085621
0.112551458 0.451357722 0.401623368
0.19272314 0.453565955 0.54306674
0.319292307 0.451459467 0.616335154
0.422662735 0.45151034 0.723691106
0.547839701 0.449526131 0.799005032
0.692039609 0.445783883 0.846367419
0.122640714 0.458140999 0.470419794
0.232971236 0.457534939 0.567548573
0.353044778 0.456027269 0.650361359
0.458271503 0.455891311 0.754989386
0.585768282 0.453701079 0.826894879
0.764763653 0.446784347 0.823131084
0.159535661 0.462635845 0.505589664
0.274505764 0.461598307 0.595901132
0.388548225 0.460637987 0.687575579
0.503518343 0.459600449 0.777887106
0.637973905 0.456792206 0.839568079
0.116149604 0.465262324 0.40523985
0.201428995 0.466883838 0.539176047
0.326141834 0.464957684 0.615172267
0.428122401 0.465079039 0.724569261
0.557010353 0.462785929 0.794431031
0.702599168 0.45899269 0.839754164
0.132422686 0.472019225 0.4822312
0.249712572 0.470756203 0.569133937
0.368858129 0.469332308 0.653310239
0.472695351 0.469266742 0.75997889
0.606685758 0.466529518 0.822343886
0.127431124 0.471560448 0.331231833
0.178850248 0.47605896 0.514916122
0.30031532 0.474435508 0.595684528
0.407864124 0.47402221 0.696899414
0.523762524 0.472881526 0.785846651
0.66331929 0.469674438 0.840033531
0.0813382566 0.48406741 0.511374712
0.232954577 0.479836911 0.547843516
0.353491962 0.478290677 0.629974842
0.453619152 0.478508145 0.742093742
0.585289419 0.475996375 0.807868004
0.755924106 0.470124513 0.81639421
0.162346676 0.485515147 0.504773319
0.285667032 0.483730733 0.582815826
0.396927476 0.482976139 0.678577065
0.506332636 0.482382536 0.777064204
0.647279143 0.479092002 0.829209805
0.0585520715 0.49360469 0.498940021
0.214804068 0.489052922 0.528599322
0.338588268 0.487229913 0.605960369
0.43778941 0.48747927 0.71943897
0.563893139 0.485469699 0.793392241
0.719217479 0.480995119 0.824414492
0.092317529 0.498535901 0.550224841
0.263550848 0.492906123 0.557877123
0.382232904 0.491514325 0.64273423
0.481898874 0.491699129 0.755529344
0.618669689 0.488807946 0.813810885
0.030049229 0.503045619 0.477622509
0.178878009 0.49918288 0.518189251
0.310082465 0.496761501 0.584648848
0.416242421 0.496392816 0.687902927
0.529359221 0.495457888 0.78093636
0.675404966 0.491820335 0.825591803
0.0597721376 0.508082032 0.529085279
0.233294129 0.502394855 0.533377469
0.357541472 0.500546217 0.610058308
0.454426438 0.500917315 0.726938426
0.58377564 0.498656839 0.796123922
0.765531123 0.492162794 0.788317323
0.0987443626 0.512358725 0.566959262
0.283071578 0.505999386 0.55538094
0.39804399 0.504897058 0.645687878
0.496784925 0.505087852 0.759840727
0.636336029 0.50202328 0.814038575
0.031127939 0.517298162 0.49645704
0.187837273 0.512908638 0.525448203
0.325533152 0.510011494 0.58237201
0.429375917 0.509784043 0.689029455
0.54342097 0.508745968 0.780698597
0.695028782 0.504755199 0.817184389
0.059094917 0.522058308 0.544734657
0.243283525 0.515904367 0.53336364
0.36938557 0.513927162 0.607320011
0.464418083 0.51435554 0.726919889
0.59562093 0.51197952 0.793382764
0.0116434051 0.525701523 0.45037064
0.103309646 0.526035488 0.574909031
0.296306133 0.519277513 0.550600052
0.407106072 0.518477321 0.647036254
0.5077039 0.518455327 0.758459926
0.649108112 0.515314102 0.809936643
0.0370339938 0.531057179 0.508197606
0.192623422 0.526949465 0.538837731
0.341909498 0.523236036 0.578736126
0.441581011 0.523258865 0.691520095
0.559336424 0.521924853 0.777738273
0.720678151 0.517304659 0.799926519
0.0690749884 0.535742819 0.562008679
0.264553577 0.529085875 0.534058809
0.391118824 0.527095973 0.607335091
0.483372301 0.527645886 0.731015861
0.615501523 0.525237978 0.796118557
0.0155822868 0.540356815 0.488042921
0.135245889 0.538856149 0.571457446
0.321077824 0.53257066 0.557672143
0.426778466 0.532104492 0.661598444
0.535260797 0.531439066 0.761438549
0.686399281 0.527655363 0.798617005
0.0534176566 0.544928253 0.544861853
0.230534047 0.539682388 0.543887198
0.378425658 0.536162496 0.585835755
0.4697541 0.536718428 0.710874259
0.596782506 0.534709334 0.783470511
0.00997558609 0.54926759 0.473411381
0.114519887 0.548570633 0.579030395
0.317347497 0.541476369 0.54028666
0.425830811 0.540784955 0.640124798
0.527823806 0.54055649 0.749497056
0.672932804 0.537268281 0.795533836
0.0512113534 0.554031312 0.542514265
0.224178299 0.549191713 0.547637045
0.381803572 0.54505533 0.575288773
0.471279562 0.54567498 0.703047097
0.596452951 0.543807447 0.778368473
0.0117617417 0.558437645 0.476719588
0.120291099 0.557500601 0.576485455
0.326545805 0.550281227 0.532709837
0.434103131 0.549628258 0.633907676
0.535170019 0.549418628 0.744639397
0.684912741 0.545867443 0.783870697
0.0566615649 0.563127458 0.551957607
0.235490859 0.55807507 0.548472703
0.398676246 0.55365032 0.567958832
0.483519167 0.554513514 0.702521324
0.610546291 0.552530348 0.77512002
0.0197404027 0.567760766 0.493970275
0.149905652 0.565622449 0.561960399
0.341831088 0.559322059 0.539231837
0.449852139 0.558604538 0.639747977
0.554164886 0.558144033 0.745711327
0.735892236 0.552524626 0.737962425
0.0745851472 0.572111726 0.566120505
0.270513088 0.566070557 0.537522674
0.430916011 0.561909914 0.561097443
0.504634619 0.563434184 0.711998582
0.643713892 0.560673892 0.766894639
0.0361480527 0.57711637 0.533392787
0.200278223 0.573126733 0.551500559
0.380149871 0.567746043 0.546479642
0.474728525 0.567882657 0.666740119
0.589703143 0.566696048 0.757042289
0.017181227 0.581460893 0.483591706
0.138182476 0.579882562 0.565041602
0.350038052 0.572524369 0.513043284
0.463158637 0.571453393 0.606068611
0.554029107 0.571795166 0.731775105
0.0597434528 0.581735075 0.349169761
0.087088801 0.585655749 0.568174243
0.289693296 0.579342425 0.529772639
0.451949269 0.575182855 0.550627887
0.523815095 0.576686561 0.704247832
0.670774221 0.573483706 0.747570992
0.0590442941 0.590669692 0.554736197
0.243874401 0.585601091 0.54244405
0.433478653 0.5797984 0.52313143
0.508023262 0.581215918 0.678575337
0.635977507 0.579213858 0.749812901
0.0430249535 0.595500469 0.546674073
0.219895095 0.591009438 0.546074986
0.420623541 0.584597528 0.510424912
0.529888153 0.58565557 0.695503831
0.684263289 0.582055151 0.727935553
0.078658402 0.599531591 0.560658753
0.272972405 0.593933642 0.534437895
0.495395333 0.589820862 0.628186762
0.602490485 0.589076877 0.730061293
0.0264492929 0.604797781 0.525120199
0.191561133 0.600990951 0.541790724
0.492684186 0.593505859 0.577543914
0.579384625 0.593948841 0.709372401
0.0186750628 0.609310031 0.499194443
0.167684853 0.606227815 0.53951025
0.395758063 0.598464489 0.463703066
0.600990653 0.598168552 0.715162754
0.0377045237 0.613889992 0.537557721
0.212881491 0.609652996 0.53944838
0.54769814 0.603237152 0.663939536
0.0232441723 0.617686272 0.4581047
0.140073389 0.616345346 0.545682073
0.378341675 0.608231425 0.454905808
0.0236389693 0.623046637 0.500803411
0.179190516 0.619670808 0.531512916
0.615324259 0.611053884 0.674219668
0.0733866915 0.62713933 0.551644444
0.266931802 0.62195152 0.52655983
0.0376861766 0.632192671 0.526415288
0.211327657 0.62811476 0.53056252
0.0399235003 0.63675189 0.526096106
0.214544684 0.632649422 0.528805017
0.0425977111 0.641298115 0.525135458
0.218688414 0.637145698 0.525686681
0.0448350608 0.645863771 0.524816334
0.222832203 0.641648412 0.522568464
0.0497509986 0.650395155 0.526322365
0.231045187 0.6460464 0.519233167
0.0573455356 0.654892206 0.529653549
0.243790627 0.650339782 0.515000939
0.0676190555 0.659354866 0.534809291
0.261995196 0.654470742 0.508510768
0.0765255466 0.663832068 0.53621465
0.279374659 0.658572435 0.497473985
0.0889849067 0.668261707 0.538161814
0.307311177 0.662300825 0.476693422
0.101628266 0.672603309 0.539837301
0.342199564 0.66576761 0.445705265
0.115661971 0.676900506 0.539471507
0.0731131509 0.680052757 0.363062441
0.131085962 0.681146502 0.537064254
0.0547057129 0.685763061 0.410334408
0.147436753 0.68536067 0.533296347
0.0516938865 0.69072783 0.429240465
0.162035719 0.689590335 0.52634263
0.0546046942 0.695504367 0.445207804
0.179776162 0.693779349 0.520534694
0.0602960885 0.700172544 0.457092255
0.192882583 0.698166668 0.521531343
0.0673780963 0.704776645 0.466934592
0.205525503 0.702573121 0.523208797
0.073171787 0.7093575 0.472910315
0.224757701 0.706688821 0.509453118
0.0768520758 0.713898897 0.470472991
0.226584256 0.711319864 0.509738147
0.07713034 0.71837759 0.455756545
0.207399249 0.716500044 0.523599446
0.0752953216 0.722842634 0.43262738
0.19073534 0.721461892 0.522242844
0.0807160065 0.726927161 0.381571621
0.165108815 0.726552308 0.516771376
0.410127103 0.72101289 0.416137129
0.135052145 0.731666505 0.50628829
0.366802722 0.72662729 0.425135344
0.109369144 0.736544073 0.477867901
0.280415446 0.733458996 0.485842437
0.093258746 0.741016626 0.418120027
0.201748028 0.739826202 0.517940044
0.447955549 0.734732032 0.415568888
0.15422973 0.74518472 0.498546779
0.37948972 0.740660191 0.426929265
0.11664518 0.750180244 0.453053802
0.264057845 0.747897923 0.495728612
0.107325703 0.754446864 0.366064668
0.190330535 0.753896177 0.503298163
0.423656136 0.749435186 0.425601631
0.154294759 0.758979142 0.472804725
0.36508581 0.755162001 0.428192377
0.130769074 0.763764858 0.423945576
0.267987311 0.761807084 0.481588036
0.490418226 0.758066833 0.425651222
0.213778943 0.767387986 0.483531296
0.438240677 0.763545513 0.430369079
0.195667788 0.772252858 0.461268961
0.422484756 0.768518507 0.43343702
0.202228799 0.776773572 0.448846579
0.42751047 0.773220062 0.434785098
0.314458191 0.779510438 0.384935051
0.455011457 0.77764672 0.437684715
0.319916517 0.784266949 0.270510107
0.433898181 0.782669008 0.437102228
0.283163041 0.789497435 0.269857556
0.408966631 0.787754178 0.419096768
0.570881963 0.785858333 0.440494567
0.367687643 0.79315418 0.419332176
0.523571014 0.791248262 0.449582338
0.337110788 0.798360109 0.386586338
0.47462672 0.79665947 0.443796724
0.29837507 0.804033697 0.250684172
0.429469377 0.802086949 0.415182769
0.584000885 0.80036211 0.447420388
0.365234435 0.80767262 0.408813477
0.51645875 0.805938482 0.445904553
0.32977435 0.813560069 0.239323139
0.461295277 0.811485708 0.414707184
0.621249855 0.809814036 0.438986778
0.38238284 0.817122996 0.412608892
0.545670867 0.815467536 0.431996584
0.338699013 0.823361337 0.226409659
0.479452163 0.821069539 0.411268085
0.640888929 0.819477797 0.433373839
0.396970361 0.826648414 0.414407104
0.566293836 0.825093865 0.424939007
0.359881848 0.833136201 0.207019359
0.50493896 0.830613434 0.408584595
0.336262256 0.838793099 0.12952961
0.430705249 0.836005926 0.422643036
0.605454624 0.834562898 0.425213814
0.390047342 0.841516137 0.375913233
0.545084894 0.84007746 0.407413542
0.341057509 0.848463237 0.157215834
0.462320119 0.845513821 0.416722178
0.634610474 0.844177604 0.422903925
0.40293318 0.850964963 0.397478342
0.573254168 0.849671304 0.406551152
0.359160095 0.858165264 0.165372565
0.516975343 0.855018735 0.400014758
0.691735268 0.853809297 0.40257445
0.448798656 0.860143125 0.422449559
0.633913219 0.859058678 0.409814954
0.42753455 0.865305722 0.404820144
0.60575068 0.864230871 0.402310014
0.42416653 0.870456994 0.378196806
0.587102413 0.869302094 0.398110688
0.39153859 0.878243208 0.123988308
0.585790753 0.874232948 0.397250086
0.448536396 0.883400202 0.0778546855
0.589130223 0.879151821 0.395320117
0.422905445 0.888518691 0.0839041695
0.568015814 0.884180546 0.394739389
0.403033793 0.893723249 0.0757459179
0.543942153 0.889153242 0.398500592
0.399154395 0.89904207 0.0498762392
0.517614901 0.894000173 0.411323905
0.40066433 0.904366195 0.021854125
0.503547609 0.898853064 0.417668283
0.70841372 0.898613989 0.376061857
0.505406201 0.903724432 0.417910755
0.710769534 0.90357691 0.375576377
0.512409389 0.90859735 0.416359991
0.415260851 0.919479072 0.0151089281
0.532380998 0.91347158 0.413047373
0.426825464 0.924360335 0.0241347589
0.565109253 0.918436706 0.402528524
0.455271423 0.929267526 0.0256564952
0.614472628 0.923422098 0.390623897
0.51695919 0.934277058 0.0129357576
0.689775586 0.928455293 0.375192553
0.595428765 0.933219433 0.395729601
0.537800252 0.93798995 0.408434004
0.504396677 0.949711025 0
0.564991832 0.947757542 0.409009755
0.627613246 0.953009725 0.389166355
0.580158889 0.962612987 0.401422471
0.595652878 0.972562075 0.39614141
