ply
format ascii 1.0
comment Written with hapPLY (https://github.com/nmwsharp/happly)
element vertex 894
property float x
property float y
property float z
end_header
0.312491208 0.000955860771 0.567234576
0.548011959 -0.00115325605 0.73966682
0.307573706 0.00575597864 0.565906465
0.396760672 0.0102085993 0.699918151
0.543922484 0.0039309971 0.742885947
0.216113478 0.0113637 0.501625538
0.340815753 0.00908997934 0.577630758
0.428365409 0.0133464662 0.708284676
0.572172284 0.00769540435 0.756187975
0.214435026 0.0155991437 0.495533198
0.338211477 0.0134901581 0.572900236
0.42306003 0.0181875806 0.707526684
0.567718089 0.0124069657 0.754178345
0.214998066 0.0177411549 0.463083953
0.32072854 0.0187500995 0.56699419
0.404850692 0.0235490967 0.702688634
0.551161349 0.0174937509 0.746909797
0.738230944 0.00489446055 0.736946166
0.234600455 0.0264250543 0.535225391
0.343916595 0.0268244669 0.63386184
0.462702215 0.0255852155 0.718569875
0.602227449 0.0207552128 0.772772491
0.802345693 0.00556361023 0.737852633
0.265991151 0.0300872978 0.549672902
0.361557603 0.0328589641 0.668533266
0.496986032 0.0287185516 0.728761375
0.63408035 0.0243451111 0.78654021
0.292522252 0.0136283571 0.283025622
0.285838783 0.0336151309 0.55227387
0.373250335 0.0377561599 0.683128297
0.515347719 0.032480102 0.733547509
0.652539611 0.0281152073 0.791183412
0.295633227 0.018457491 0.287186205
0.291732907 0.0378366485 0.552338481
0.377732873 0.042182032 0.685268402
0.520780325 0.0367662013 0.734290719
0.658433735 0.0323419198 0.791248083
0.293580592 0.0224951264 0.275882334
0.284600079 0.0425851829 0.548503757
0.375881165 0.0459937789 0.673665404
0.513648152 0.0415018015 0.730454743
0.648525119 0.0375601202 0.791496038
0.846773326 0.0230322331 0.759333134
0.271647066 0.0474786572 0.541699588
0.368672252 0.0498820208 0.658412158
0.50023365 0.0464592017 0.724329174
0.634184361 0.0426868163 0.786732912
0.816238999 0.0309318006 0.778388202
0.256478399 0.0523283146 0.532389402
0.360536933 0.053514488 0.638756812
0.483702362 0.0515217036 0.717022777
0.619015336 0.0475371182 0.777423263
0.79505378 0.0368417092 0.777927995
0.237898678 0.056522686 0.51080215
0.356123477 0.0553549938 0.596334577
0.457019031 0.0570492409 0.707353592
0.589336157 0.0535499305 0.772159994
0.770458162 0.0420833752 0.765189528
0.238104746 0.0564669818 0.444293648
0.335981965 0.0586066432 0.559750795
0.419671059 0.0631166846 0.69607532
0.546778977 0.0604638346 0.768542826
0.709617674 0.0520119034 0.788461924
0.303237557 0.045195315 0.270772368
0.300308585 0.0635936409 0.534480631
0.386164814 0.0676996857 0.667617023
0.511082828 0.0654193759 0.743305445
0.658221483 0.0595524274 0.786314905
0.825000882 0.0505363196 0.800440013
0.260106921 0.0689121187 0.510105431
0.370471716 0.0689982027 0.607196987
0.475774258 0.0698991269 0.711733282
0.602760911 0.0673151612 0.784380019
0.781559467 0.056422092 0.780830264
0.32911858 0.056435287 0.319354981
0.343774825 0.0717588812 0.557196856
0.43428275 0.0749999955 0.683490098
0.543868542 0.0752711073 0.781728387
0.714171886 0.0657204166 0.790671647
0.885569215 0.0560709462 0.798007429
0.304226071 0.0761959478 0.520333052
0.391937852 0.0798435509 0.650737584
0.4996984 0.080397889 0.751659989
0.652430654 0.0736790672 0.786444187
0.811341822 0.0660611838 0.812143087
0.361666203 0.0657912418 0.346604139
0.381420612 0.080080092 0.576944411
0.461273104 0.0849859938 0.718907058
0.585315228 0.0828640535 0.795883954
0.77262032 0.070792757 0.779827595
0.339582086 0.0680118129 0.289824098
0.339002609 0.0853618905 0.550064385
0.434114575 0.0877820849 0.669585168
0.531119049 0.0900380164 0.786325336
0.703388512 0.0802904069 0.792379379
0.863681674 0.0725416243 0.816047668
0.312478811 0.0893212035 0.517103732
0.411752611 0.0910689533 0.630503893
0.494596332 0.0955212936 0.768068016
0.64681828 0.0889071822 0.803603053
0.813580394 0.0802000239 0.817759395
0.309610695 0.0911680311 0.472413629
0.401952654 0.0939581543 0.596006691
0.476673901 0.0995852426 0.745513618
0.615756452 0.0950605795 0.800371647
0.793146908 0.0847699121 0.79889971
0.368211567 0.0836720169 0.337334692
0.386604458 0.0977238417 0.569668651
0.456999242 0.103939958 0.725536287
0.577974439 0.102322966 0.807023764
0.764855444 0.0905443057 0.791595399
0.932998836 0.0817282945 0.803722441
0.365512997 0.103067487 0.563303232
0.443983376 0.107983716 0.707294524
0.557511091 0.107557788 0.799734414
0.731747508 0.0977260545 0.802900076
0.896197498 0.0895005241 0.820458829
0.343591094 0.108161278 0.552394927
0.430040807 0.111795031 0.684651434
0.533055425 0.113027535 0.792551756
0.701042712 0.104152866 0.804906845
0.861336589 0.096583657 0.828577399
0.326292396 0.112555645 0.534688294
0.424638063 0.114357941 0.649451613
0.508599758 0.118486926 0.785368919
0.665712833 0.111265451 0.813714266
0.831558466 0.102882005 0.829221666
0.316854388 0.115771472 0.505423009
0.425832391 0.115962416 0.604551852
0.491153002 0.122840904 0.76787889
0.632716 0.118011437 0.819090843
0.811950445 0.107640706 0.814911187
0.324065715 0.116507553 0.45167622
0.415008396 0.119392022 0.577324629
0.471516252 0.127540842 0.753609419
0.609135926 0.123348124 0.810620606
0.795116961 0.111984164 0.796520829
0.378183067 0.109551765 0.317430556
0.382642418 0.125313967 0.570245922
0.450026065 0.131772041 0.730537295
0.571439445 0.130091414 0.811380506
0.7461043 0.12039949 0.813920021
0.912425637 0.112026222 0.828729451
0.353878766 0.131056204 0.563633919
0.432527959 0.135777995 0.707359076
0.544305742 0.135567695 0.802371264
0.711791098 0.126967013 0.815468132
0.873491526 0.119307451 0.83707273
0.331127226 0.135902122 0.548181534
0.423911422 0.138460815 0.67112118
0.516734958 0.141099796 0.794004619
0.676087439 0.133726209 0.819060504
0.842417419 0.125406876 0.833858311
0.318186998 0.138942763 0.51253897
0.425771862 0.139304608 0.613715529
0.493492573 0.145602971 0.773509264
0.635050595 0.140901774 0.824730873
0.81837815 0.130100012 0.814536035
0.324217737 0.139214709 0.449002147
0.410982281 0.142622933 0.580792367
0.463681281 0.151089609 0.762672961
0.605238318 0.146413684 0.813896537
0.788787067 0.135608673 0.803376973
0.325092524 0.138849512 0.369992435
0.373158246 0.148963943 0.575974882
0.440387487 0.155241519 0.736489475
0.565303981 0.153048679 0.812181711
0.734770358 0.144325212 0.82236886
0.900188208 0.136220738 0.838509321
0.329805225 0.154319629 0.550468445
0.423966795 0.15661189 0.671381652
0.511101604 0.159954846 0.802627206
0.673833847 0.152239695 0.822716475
0.844346106 0.143421277 0.831366897
0.322113693 0.152736545 0.443709195
0.404240489 0.156756476 0.582317352
0.458394527 0.164839223 0.762055337
0.597321749 0.16062279 0.817147136
0.774182737 0.150911003 0.816463232
0.947014034 0.141786113 0.821704388
0.327159584 0.163460389 0.548766434
0.422241837 0.165587828 0.668325245
0.508015454 0.16904901 0.801570714
0.669796228 0.16155982 0.823060691
0.844020963 0.152265295 0.826253593
0.301288307 0.161741287 0.422629744
0.369984657 0.167646155 0.580984175
0.439570755 0.173400596 0.738029957
0.560108125 0.171854347 0.820161283
0.732985377 0.162807256 0.825336456
0.89980942 0.154608563 0.839411438
0.31164667 0.169206798 0.479530215
0.414593428 0.170178398 0.587525249
0.467376739 0.17828463 0.769275367
0.60717696 0.174010888 0.823084891
0.790556014 0.163486034 0.8128196
0.97312361 0.15306145 0.803747177
0.318131268 0.176154807 0.524835229
0.422002107 0.176984325 0.631471395
0.491087198 0.18270427 0.789251804
0.645021379 0.176465154 0.822281063
0.835465789 0.164954916 0.801627994
0.262811035 0.174907237 0.378600746
0.324546814 0.181706935 0.547187507
0.41684103 0.184169009 0.670844436
0.507147968 0.186830953 0.797421694
0.666712999 0.179827988 0.822172642
0.848366559 0.169607252 0.814445496
0.25980553 0.180782706 0.397514701
0.328944653 0.186500877 0.555215776
0.413020134 0.190074071 0.690955639
0.514735103 0.191124305 0.800759912
0.676202238 0.183891088 0.822714984
0.855546832 0.174033374 0.818383276
0.254119933 0.186681494 0.414605528
0.33158949 0.191196829 0.560057998
0.412675202 0.19514516 0.70019275
0.519643247 0.195453957 0.802273571
0.682087243 0.188122213 0.822793126
0.860974491 0.178364128 0.819134533
0.24631691 0.192183495 0.423282444
0.330266088 0.195764616 0.559207797
0.410912365 0.199740246 0.699987948
0.518318951 0.199973091 0.801423788
0.680763125 0.192684144 0.821943879
0.861508667 0.182699695 0.815553725
0.240828499 0.197355002 0.428556263
0.328943074 0.200333044 0.558357
0.409149945 0.20433405 0.69978255
0.516994596 0.204492286 0.800574005
0.678975582 0.197309986 0.821775854
0.862042844 0.187037885 0.811972976
0.235802636 0.202456713 0.433149815
0.327156663 0.204965368 0.558187485
0.407824934 0.208868772 0.698934019
0.515232444 0.209069863 0.800367832
0.676724732 0.202000394 0.822289109
0.863040745 0.191314101 0.807710469
0.230413914 0.207268104 0.432513565
0.322691321 0.209631413 0.556193352
0.405571938 0.21320729 0.693686783
0.509916723 0.213796094 0.799622834
0.669015408 0.207107842 0.825064123
0.862750173 0.195434973 0.799579084
0.226313338 0.212234885 0.4357467
0.320441544 0.214327008 0.556705058
0.404684424 0.217686817 0.692195177
0.508154929 0.218370438 0.799416125
0.663520992 0.212241009 0.830345988
0.864212573 0.199653149 0.794633746
0.221387193 0.216979116 0.434430212
0.315976173 0.218991756 0.554710865
0.403743893 0.221862346 0.685018718
0.501963913 0.223204508 0.799957812
0.654883444 0.217467219 0.834485531
0.86392343 0.203781769 0.786500335
0.213420689 0.221473873 0.426057279
0.308007032 0.223471552 0.546341479
0.402696937 0.225440949 0.66647321
0.489103168 0.228270292 0.798778415
0.639395833 0.22290954 0.837168515
0.849009454 0.209249318 0.788341939
0.20205313 0.225443795 0.405395031
0.295710117 0.227552384 0.52704525
0.40790543 0.227140084 0.621440887
0.469519764 0.23326382 0.790193141
0.616748035 0.228328347 0.833088636
0.809838116 0.217019394 0.808556497
0.205928519 0.226044238 0.339270681
0.26667428 0.232591584 0.509305596
0.38628456 0.231171161 0.592799902
0.447535485 0.237344056 0.762086391
0.578136027 0.234532103 0.829425037
0.7553128 0.22552821 0.828290999
0.950473547 0.213880002 0.800713539
0.235423192 0.237602517 0.489059508
0.350397944 0.236805499 0.57936877
0.420684159 0.241746336 0.735371709
0.539033771 0.240472212 0.820719004
0.707838297 0.232728899 0.831895888
0.906251252 0.220687315 0.799538076
0.213804528 0.241644681 0.460415423
0.319970518 0.242026672 0.563674808
0.400448471 0.245637551 0.704695165
0.509173393 0.245548651 0.80419004
0.662111998 0.240000904 0.83869344
0.891592801 0.223836601 0.760662258
0.195328996 0.245598301 0.43291375
0.295930117 0.246715263 0.544354081
0.398849517 0.247522444 0.652386129
0.477179617 0.251173288 0.796559453
0.623090863 0.246528476 0.841393292
0.825834215 0.234151348 0.802673757
0.186282009 0.249272108 0.408840239
0.276216358 0.251795709 0.535961688
0.403709084 0.249324784 0.607867837
0.461971402 0.255621314 0.781542778
0.599569738 0.252012312 0.838596284
0.789896369 0.241417632 0.818133354
0.182129979 0.252948195 0.389096737
0.265569359 0.256313771 0.525766134
0.392135352 0.253969312 0.599034786
0.451682568 0.260059088 0.770820081
0.584031105 0.257098883 0.835590541
0.764876842 0.247856796 0.829067349
0.181785494 0.258681446 0.409859598
0.272641331 0.261047363 0.535625696
0.399207681 0.258706182 0.608893812
0.461072981 0.264432341 0.777270257
0.595607996 0.261227906 0.838827193
0.782617033 0.251194775 0.823243737
0.196374163 0.264980465 0.454772651
0.306243658 0.264833748 0.552586675
0.384914368 0.268487573 0.696260154
0.490580171 0.268685341 0.800250053
0.638236105 0.263958991 0.842521906
0.850544631 0.250494301 0.789743841
0.220132262 0.270377785 0.491968423
0.337422729 0.269255459 0.578872979
0.407039613 0.273888379 0.73585248
0.532387972 0.271784157 0.810912549
0.689293742 0.265889078 0.839587152
0.170625016 0.269908071 0.354488254
0.237349615 0.275358319 0.515727878
0.362989604 0.273148805 0.590358019
0.428948075 0.278193742 0.752714396
0.557795405 0.275693327 0.822631955
0.723210156 0.268690735 0.838797748
0.169962347 0.276603937 0.393007129
0.251991779 0.280041009 0.531747162
0.383664131 0.277054101 0.597509503
0.443750054 0.282764047 0.76849705
0.579157054 0.27952826 0.828773677
0.751771629 0.271574736 0.834354997
0.173936263 0.282680333 0.424709529
0.271273971 0.284122437 0.540945351
0.389027059 0.282934874 0.627169728
0.463800251 0.286738038 0.776566088
0.599644065 0.283471674 0.836201012
0.784511209 0.273932993 0.823770404
0.180333093 0.288121283 0.447087139
0.286021113 0.288478851 0.551047504
0.379438162 0.290209264 0.673042834
0.478547931 0.291045219 0.786666512
0.619201124 0.287262321 0.839233398
0.815038919 0.276284456 0.810674906
0.186370388 0.293290138 0.464230359
0.299482316 0.292691559 0.557277203
0.379262179 0.295922786 0.699314952
0.490179449 0.295434147 0.795584798
0.635204554 0.291195154 0.84172684
0.843355536 0.278628528 0.79506743
0.191120282 0.298310101 0.477503181
0.311193526 0.296822578 0.560316741
0.384716868 0.300737172 0.71154952
0.499569893 0.29980877 0.802034974
0.648091912 0.295219451 0.843038201
0.867604136 0.281203806 0.77967757
0.196797669 0.303206772 0.489412516
0.322441012 0.301015496 0.564038038
0.391046226 0.305448234 0.722498536
0.508959949 0.30418399 0.808485627
0.662290812 0.299111843 0.842422366
0.173745841 0.298394144 0.289996296
0.207009733 0.307831734 0.500418484
0.332653463 0.305643022 0.575043559
0.400928795 0.310024291 0.733987153
0.521903336 0.308431298 0.81547606
0.68033886 0.302756876 0.841909647
0.156681284 0.306184113 0.335336536
0.216864109 0.312197506 0.506187558
0.339258313 0.310418427 0.585589409
0.41119355 0.314307928 0.739152431
0.533042371 0.312623292 0.819356441
0.697156429 0.306245387 0.837442935
0.15343371 0.312519193 0.366128355
0.229397118 0.316529602 0.513781786
0.350863099 0.314867914 0.594548106
0.423262596 0.318649471 0.747427762
0.54773438 0.316694498 0.823777199
0.715725541 0.309824139 0.836164296
0.152969301 0.318490982 0.392828673
0.240072936 0.321093231 0.524106026
0.367111266 0.318740159 0.596681237
0.435768455 0.322946757 0.75506115
0.563737512 0.320637673 0.826271296
0.731045067 0.31381309 0.839662433
0.157502919 0.324127138 0.417944402
0.252033889 0.325792134 0.538303673
0.380466044 0.323271364 0.608830094
0.449641794 0.327344269 0.766446471
0.5837304 0.324423015 0.828663945
0.757867754 0.316682935 0.832014322
0.160965458 0.328998178 0.427346885
0.258280694 0.330305785 0.543613136
0.384391159 0.328074634 0.6175524
0.456353277 0.331754476 0.77107203
0.595249951 0.328367919 0.826224208
0.771547854 0.320297003 0.826397598
0.163962901 0.333964229 0.43743366
0.264993936 0.334793836 0.548237503
0.388782382 0.332851619 0.625590086
0.46350494 0.336149096 0.775051236
0.603712499 0.332654625 0.828277588
0.783833683 0.32414031 0.822831511
0.165674806 0.338788569 0.443647474
0.269493461 0.339259505 0.550353527
0.389566332 0.337769359 0.633167565
0.467977643 0.340579987 0.777205884
0.610370755 0.336893797 0.827221036
0.792046726 0.328199208 0.819489777
0.166101918 0.343475044 0.445987314
0.271778464 0.343705356 0.549962163
0.390458256 0.342381567 0.634823918
0.4697721 0.345045298 0.777534842
0.613038957 0.341300517 0.826266646
0.795723557 0.33252278 0.817053437
0.166993186 0.348104119 0.447644949
0.274527997 0.348098338 0.548888087
0.39274326 0.346827418 0.634432554
0.4715662 0.349512488 0.777864397
0.616143942 0.345668197 0.824670434
0.798935592 0.336907566 0.815300405
0.166134432 0.352657914 0.446112484
0.274598569 0.35252896 0.545989454
0.39374283 0.351145834 0.630168438
0.471119255 0.35397315 0.775725842
0.614822388 0.350239873 0.823817551
0.796218634 0.34171173 0.816499829
0.165740207 0.35715884 0.443897337
0.2737405 0.357070446 0.544455767
0.39334923 0.355631888 0.62795198
0.470234752 0.358476698 0.774230242
0.613500416 0.354810923 0.822965205
0.793501675 0.346512675 0.817699194
0.166631803 0.361787945 0.445554405
0.275096565 0.361631751 0.545429945
0.394705296 0.360192508 0.628926158
0.472903222 0.362866551 0.773275077
0.617916644 0.359066188 0.819442511
0.797177851 0.350848496 0.815264106
0.165773109 0.366344362 0.44402197
0.273309886 0.366280943 0.545261145
0.392918617 0.364840448 0.628757358
0.472893089 0.367294014 0.770494819
0.617031872 0.363601476 0.817947865
0.794925392 0.355595261 0.815780759
0.16584304 0.370797008 0.441124737
0.271987677 0.37087661 0.544409692
0.390203238 0.369592071 0.629953444
0.472882599 0.371724099 0.767715156
0.617021561 0.368059427 0.8151685
0.793601573 0.36023432 0.814932466
0.166734293 0.375426054 0.442782313
0.272879243 0.375489473 0.546066523
0.39063102 0.374254584 0.632291913
0.475550741 0.376123041 0.766760588
0.620126247 0.372447193 0.813573062
0.797277391 0.36457929 0.812498033
0.167625874 0.380053848 0.444439381
0.273771495 0.380101055 0.54772234
0.392451555 0.378760457 0.63258338
0.479093283 0.380449146 0.76452148
0.622848451 0.376850843 0.812539339
0.80141741 0.368878454 0.809381485
0.170731604 0.384697556 0.448604286
0.277806133 0.384626716 0.550521672
0.398807675 0.38302955 0.631970823
0.485314071 0.384745449 0.764108062
0.628276587 0.381209463 0.813290417
0.812878251 0.37264055 0.801267564
0.173837274 0.389338642 0.45276913
0.282769471 0.389051825 0.551956117
0.405627966 0.387253553 0.63067621
0.491534889 0.389046252 0.763694704
0.633240223 0.385622263 0.814724207
0.822946012 0.376570284 0.795201421
0.177407458 0.39392817 0.456251293
0.287732422 0.393478841 0.553391159
0.408733964 0.391883016 0.634840369
0.498192549 0.393316507 0.762639642
0.638203859 0.390037 0.816157997
0.833941758 0.380413055 0.787771642
0.181441858 0.398467422 0.459051311
0.293624103 0.397809267 0.553461492
0.410447866 0.396658063 0.641050339
0.504850566 0.397591978 0.761584103
0.643167496 0.394453675 0.817591906
0.843079865 0.384469301 0.783072233
0.187690645 0.40302065 0.464358568
0.303122312 0.402011871 0.553993225
0.415769041 0.401295662 0.647720635
0.514186561 0.401839554 0.762354851
0.65173769 0.398739964 0.819487154
0.884602904 0.385377258 0.736541748
0.191724986 0.407559246 0.467158556
0.308085322 0.406447977 0.555428386
0.420732021 0.405723333 0.649155676
0.522592306 0.405986845 0.758731902
0.658093512 0.403016865 0.818875253
0.913233519 0.387459338 0.703197598
0.195759326 0.412099183 0.469958574
0.312583774 0.410933048 0.557546198
0.425694972 0.410153657 0.650590777
0.533701122 0.409896106 0.751137435
0.665377617 0.407202899 0.81689924
0.158513591 0.410346836 0.27991733
0.202008501 0.416647822 0.475265294
0.32022506 0.415340036 0.560807168
0.432408631 0.414644271 0.655214667
0.551089346 0.413284838 0.740074396
0.676732183 0.411223203 0.814703166
0.154443294 0.41625908 0.306151628
0.209543407 0.421303928 0.484443963
0.332401603 0.419525743 0.56316483
0.444585115 0.41882351 0.657572269
0.561409891 0.417650998 0.745159328
0.69215709 0.415073842 0.812287152
0.154339373 0.422206193 0.338079333
0.224292532 0.425704449 0.49454397
0.349934638 0.423649222 0.569173932
0.458405912 0.423307776 0.669036388
0.573838532 0.422270447 0.758669078
0.714331388 0.418733507 0.811475933
0.159341231 0.427624881 0.362503856
0.239041299 0.430104941 0.504644513
0.364683449 0.42805624 0.579274595
0.475011319 0.427514911 0.67640847
0.587195873 0.426793277 0.770814061
0.740217328 0.42204535 0.805210888
0.166093975 0.433073491 0.390116245
0.257396996 0.434374481 0.515205979
0.380718678 0.432557642 0.593245983
0.491975218 0.431919694 0.68901509
0.604159713 0.431185067 0.783420563
0.769245028 0.425297171 0.80009079
0.175062507 0.438513368 0.420233428
0.281679094 0.438306898 0.522820413
0.39943251 0.437024713 0.609042466
0.510689378 0.43637383 0.704810917
0.628442466 0.435098141 0.791033626
0.80791074 0.427870691 0.786569953
0.193206564 0.44326818 0.442628652
0.304463714 0.442604303 0.538396358
0.419433206 0.441592693 0.628709316
0.532082498 0.440793574 0.722431362
0.657723665 0.438764274 0.797063231
0.17226471 0.442332387 0.274730504
0.215315953 0.448076636 0.470719129
0.333069354 0.44679442 0.556941211
0.446183205 0.44595021 0.649980664
0.56579262 0.444487661 0.733475506
0.69978559 0.441672653 0.795835197
0.164572552 0.450204462 0.352372915
0.244744241 0.452412695 0.493816286
0.371313393 0.450306237 0.56708473
0.474683821 0.45035708 0.674440682
0.599860787 0.448372871 0.749754608
0.744060695 0.444630623 0.797116995
0.174661815 0.456987739 0.421169311
0.284992337 0.456381679 0.51829809
0.405065894 0.454874039 0.601110876
0.51029259 0.454738051 0.705738962
0.637789369 0.452547818 0.777644455
0.816784739 0.445631087 0.773880661
0.211556762 0.461482584 0.45633921
0.32652685 0.460445046 0.546650708
0.440569311 0.459484726 0.638325155
0.555539429 0.458447188 0.728636682
0.689994991 0.455638945 0.790317655
0.168170705 0.464109063 0.355989397
0.253450096 0.465730608 0.489925593
0.37816295 0.463804424 0.565921783
0.480143487 0.463925779 0.675318837
0.609031498 0.461632699 0.745180607
0.754620254 0.457839459 0.79050374
0.184443787 0.470865965 0.432980716
0.301733673 0.469602972 0.519883454
0.420879215 0.468179047 0.604059815
0.524716437 0.468113512 0.710728467
0.658706844 0.465376258 0.773093462
0.179452226 0.470407188 0.281981349
0.23087135 0.474905729 0.465665668
0.352336407 0.473282248 0.546434104
0.45988521 0.472868949 0.64764899
0.57578361 0.471728265 0.736596167
0.715340376 0.468521208 0.790783107
0.133359358 0.48291415 0.462124288
0.284975678 0.47868368 0.498593092
0.405513048 0.477137417 0.580724418
0.505640268 0.477354884 0.692843318
0.637310565 0.474843115 0.75861758
0.807945251 0.468971252 0.767143786
0.214367777 0.484361887 0.455522895
0.337688148 0.482577473 0.533565402
0.448948562 0.481822908 0.629326642
0.558353722 0.481229305 0.72781378
0.699300289 0.477938741 0.779959381
0.110573173 0.492451429 0.449689537
0.266825169 0.487899691 0.479348898
0.390609354 0.486076653 0.556709945
0.489810526 0.486326039 0.670188487
0.615914226 0.484316468 0.744141817
0.771238565 0.479841858 0.775164068
0.144338623 0.497382641 0.500974417
0.315571934 0.491752863 0.50862664
0.434253991 0.490361065 0.593483806
0.53391999 0.490545869 0.70627892
0.670690775 0.487654686 0.764560461
0.0820703283 0.501892328 0.428372025
0.23089911 0.498029649 0.468938798
0.362103581 0.49560824 0.535398424
0.468263537 0.495239556 0.638652503
0.581380308 0.494304627 0.731685936
0.727426052 0.490667105 0.776341379
0.111793235 0.506928742 0.479834825
0.285315216 0.501241565 0.484127045
0.409562558 0.499392927 0.560807884
0.506447554 0.499764085 0.677688003
0.635796726 0.497503608 0.746873498
0.817552269 0.491009563 0.739066839
0.150765464 0.511205435 0.517708838
0.335092664 0.504846096 0.506130457
0.450065076 0.503743827 0.596437395
0.548806012 0.503934562 0.710590303
0.688357174 0.500869989 0.764788091
0.0831490383 0.516144872 0.447206587
0.239858374 0.511755347 0.476197749
0.377554238 0.508858204 0.533121586
0.481397003 0.508630753 0.639779031
0.595442057 0.507592678 0.731448174
0.747049868 0.503601968 0.767933965
0.111116014 0.520905018 0.495484233
0.295304626 0.514751077 0.484113157
0.421406657 0.512773871 0.558069587
0.516439199 0.51320225 0.677669466
0.647642076 0.51082623 0.74413228
0.0636645034 0.524548233 0.401120186
0.155330747 0.524882197 0.525658607
0.348327249 0.518124223 0.501349568
0.459127158 0.51732403 0.59778583
0.559724987 0.517302036 0.709209442
0.701129258 0.514160812 0.760686219
0.0890550911 0.529903889 0.458947152
0.244644523 0.525796175 0.489587247
0.393930584 0.522082746 0.529485643
0.493602127 0.522105634 0.642269671
0.61135751 0.520771563 0.728487849
0.772699296 0.516151428 0.750676095
0.121096089 0.534589529 0.512758255
0.316574663 0.527932584 0.484808326
0.443139911 0.525942683 0.558084667
0.535393417 0.526492596 0.681765437
0.667522609 0.524084687 0.746868134
0.0676033869 0.539203525 0.438792467
0.187266991 0.537702858 0.522207022
0.37309891 0.53141737 0.508421719
0.478799582 0.530951202 0.61234802
0.587281883 0.530285776 0.712188125
0.738420367 0.526502073 0.749366581
0.105438754 0.543774962 0.495611429
0.282555133 0.538529098 0.494636744
0.430446744 0.535009205 0.536585331
0.521775186 0.535565138 0.661623836
0.648803651 0.533556044 0.734220028
0.0619966872 0.5481143 0.424160928
0.16654098 0.547417343 0.529779971
0.369368613 0.540323079 0.491036206
0.477851897 0.539631665 0.590874374
0.579844892 0.5394032 0.700246572
0.72495389 0.536114991 0.746283412
0.103232451 0.552878022 0.493263841
0.2761994 0.548038423 0.498386621
0.433824658 0.54390204 0.526038349
0.523300648 0.544521689 0.653796673
0.648474097 0.542654157 0.729118049
0.063782841 0.557284355 0.427469134
0.1723122 0.55634737 0.527235031
0.378566891 0.549127936 0.483459353
0.486124218 0.548474967 0.584657252
0.587191105 0.548265398 0.695388973
0.736933827 0.544714153 0.734620273
0.10868267 0.561974168 0.502707183
0.287511945 0.55692178 0.499222219
0.450697362 0.552497029 0.518708348
0.535540283 0.553360283 0.6532709
0.662567377 0.551377118 0.725869596
0.0717615038 0.566607475 0.444719821
0.201926753 0.564469159 0.512709975
0.393852204 0.558168769 0.489981383
0.501873255 0.557451248 0.590497494
0.606185973 0.556990743 0.696460843
0.787913322 0.551371336 0.688712001
0.126606256 0.570958436 0.516870081
0.322534204 0.564917266 0.48827222
0.482937098 0.560756624 0.51184696
0.556655705 0.562280893 0.662748158
0.695734978 0.559520602 0.717644215
0.0881691501 0.57596314 0.484142303
0.252299309 0.571973443 0.502250075
0.432170987 0.566592753 0.497229218
0.526749611 0.566729367 0.617489696
0.641724229 0.565542817 0.707791805
0.0692023262 0.580307603 0.434341252
0.190203577 0.578729272 0.515791178
0.402059168 0.571371138 0.463792861
0.515179753 0.570300162 0.556818187
0.606050193 0.570641875 0.682524681
0.11176455 0.580581784 0.299919307
0.13910991 0.584502518 0.518923819
0.341714412 0.578189135 0.480522215
0.503970385 0.574029565 0.501377404
0.575836182 0.575533271 0.654997408
0.722795308 0.572330475 0.698320508
0.111065395 0.589516401 0.505485713
0.295895487 0.584447801 0.493193567
0.485499769 0.57864511 0.473880976
0.560044348 0.580062628 0.629324913
0.687998593 0.578060567 0.700562477
0.0950460583 0.594347179 0.497423649
0.271916211 0.589856148 0.496824533
0.472644657 0.583444297 0.461174458
0.581909239 0.58450228 0.646253347
0.736284375 0.580901861 0.678685129
0.130679503 0.598378301 0.511408329
0.324993521 0.592780352 0.485187441
0.547416449 0.588667572 0.578936338
0.654511571 0.587923586 0.680810869
0.078470394 0.60364449 0.475869715
0.243582219 0.599837661 0.49254024
0.544705272 0.592352569 0.52829349
0.631405771 0.592795551 0.660121977
0.0706961602 0.6081568 0.44994399
0.219705954 0.605074525 0.490259796
0.447779179 0.597311199 0.414452612
0.653011739 0.597015262 0.665912271
0.0897256285 0.612736762 0.488307297
0.264902592 0.608499706 0.490197957
0.599719226 0.602083862 0.614689112
0.0752652735 0.616532981 0.408854246
0.19209449 0.615192056 0.496431589
0.430362761 0.607078195 0.405655354
0.0756600648 0.621893346 0.451552987
0.231211603 0.618517518 0.482262433
0.667345345 0.609900594 0.624969244
0.125407785 0.62598604 0.502394021
0.318952888 0.62079823 0.477309376
0.0897072777 0.631039381 0.477164835
0.263348758 0.62696147 0.481312066
0.0919445977 0.6355986 0.476845682
0.26656577 0.631496131 0.479554564
0.0946188122 0.640144825 0.475885004
0.270709515 0.635992408 0.476436228
0.096856162 0.644710481 0.47556591
0.274853289 0.640495121 0.473317981
0.1017721 0.649241865 0.477071911
0.283066303 0.64489311 0.469982713
0.109366633 0.653738916 0.480403095
0.295811713 0.649186492 0.465750515
0.119640157 0.658201575 0.485558867
0.314016283 0.653317451 0.459260315
0.12854664 0.662678778 0.486964226
0.331395775 0.657419145 0.448223531
0.141006008 0.667108417 0.48891139
0.359332263 0.661147535 0.427442968
0.15364936 0.671450078 0.490586877
0.39422065 0.66461432 0.396454781
0.167683065 0.675747216 0.490221024
0.125134259 0.678899467 0.313811988
0.183107063 0.679993212 0.487813801
0.10672681 0.684609771 0.361083925
0.199457854 0.68420738 0.484045863
0.103714988 0.68957454 0.379989982
0.214056805 0.688437045 0.477092206
0.106625795 0.694351077 0.395957321
0.231797263 0.692626119 0.47128424
0.11231719 0.699019253 0.407841772
0.244903684 0.697013378 0.47228092
0.119399197 0.703623354 0.417684138
0.257546604 0.70141983 0.473958313
0.125192881 0.70820421 0.423659831
0.276778787 0.705535531 0.460202664
0.128873169 0.712745607 0.421222538
0.278605342 0.710166633 0.460487664
0.129151434 0.7172243 0.406506062
0.259420335 0.715346754 0.474349022
0.12731643 0.721689343 0.383376896
0.242756441 0.720308661 0.47299239
0.132737115 0.725773871 0.332321137
0.217129916 0.725399017 0.467520952
0.462148219 0.71985966 0.366886675
0.187073246 0.730513215 0.457037836
0.418823838 0.725474 0.375884891
0.161390245 0.735390782 0.428617418
0.332436562 0.732305765 0.436591953
0.14527984 0.739863336 0.368869573
0.25376913 0.738672912 0.468689591
0.499976665 0.733578742 0.366318434
0.206250831 0.744031429 0.449296325
0.431510836 0.7395069 0.377678782
0.168666273 0.749026954 0.403803319
0.316078931 0.746744633 0.446478128
0.159346804 0.753293574 0.316814214
0.242351636 0.752742887 0.45404768
0.475677222 0.748281956 0.376351178
0.206315845 0.757825851 0.423554271
0.417106897 0.75400877 0.378941894
0.182790175 0.762611568 0.374695092
0.320008397 0.760653794 0.432337582
0.542439342 0.756913543 0.376400769
0.265800029 0.766234696 0.434280843
0.490261763 0.762392223 0.381118596
0.24768889 0.771099627 0.412018508
0.474505842 0.767365217 0.384186536
0.254249901 0.775620282 0.399596125
0.479531556 0.772066772 0.385534644
0.366479307 0.778357148 0.335684597
0.507032573 0.77649343 0.388434261
0.371937603 0.783113658 0.221259654
0.485919267 0.781515718 0.387851775
0.335184127 0.788344145 0.220607087
0.460987747 0.786600888 0.369846314
0.622903049 0.784705043 0.391244113
0.419708729 0.792000949 0.370081693
0.575592101 0.790094972 0.400331885
0.389131874 0.797206819 0.337335885
0.526647806 0.795506239 0.39454627
0.350396186 0.802880406 0.201433718
0.481490493 0.800933659 0.365932286
0.636021972 0.79920882 0.398169935
0.417255521 0.806519389 0.359563023
0.568479836 0.804785252 0.396654069
0.381795436 0.812406838 0.190072685
0.513316393 0.810332417 0.3654567
0.673270941 0.808660746 0.389736295
0.434403926 0.815969706 0.363358438
0.597691953 0.814314246 0.38274613
0.390720129 0.822208047 0.177159205
0.531473279 0.819916248 0.362017602
0.692910016 0.818324506 0.384123385
0.448991477 0.825495124 0.365156651
0.618314922 0.823940635 0.375688553
0.411902934 0.831982911 0.157768905
0.556960046 0.829460144 0.359334141
0.388283372 0.837639809 0.080279164
0.482726336 0.834852636 0.373392582
0.65747571 0.833409607 0.37596333
0.442068458 0.840362847 0.326662779
0.59710598 0.83892417 0.358163089
0.393078625 0.847309947 0.10796538
0.514341235 0.84436059 0.367471725
0.68663156 0.843024313 0.373653442
0.454954296 0.849811673 0.348227888
0.625275254 0.848518074 0.357300669
0.411181211 0.857011974 0.116122104
0.568996429 0.853865445 0.350764275
0.743756354 0.852656007 0.353323996
0.500819743 0.858989835 0.373199105
0.685934305 0.857905388 0.36056447
0.479555666 0.864152431 0.35556969
0.657771766 0.863077581 0.35305956
0.476187617 0.869303703 0.328946352
0.639123499 0.868148804 0.348860234
0.443559676 0.877089918 0.0747378469
0.63781184 0.873079717 0.347999603
0.500557482 0.882246912 0.028604228
0.641151309 0.877998531 0.346069664
0.474926531 0.88736546 0.0346537121
0.6200369 0.883027256 0.345488906
0.455054909 0.892569959 0.0264954641
0.595963299 0.887999952 0.349250138
0.451175511 0.897888839 0.000625784392
0.569635987 0.892846882 0.362073421
0.452685446 0.903212905 -0.0273963306
0.555568695 0.897699773 0.368417829
0.760434806 0.897460699 0.326811403
0.557427287 0.902571142 0.368660301
0.76279062 0.90242362 0.326325923
0.564430475 0.90744406 0.367109507
0.467281967 0.918325782 -0.0341415256
0.584402084 0.912318289 0.36379689
0.47884655 0.923207104 -0.0251156967
0.617130339 0.917283416 0.353278071
0.507292509 0.928114235 -0.0235939585
0.666493714 0.922268808 0.341373414
0.568980277 0.933123767 -0.0363146961
0.741796672 0.927302003 0.325942099
0.647449851 0.932066143 0.346479118
0.589821339 0.93683666 0.35918355
0.556417763 0.948557734 -0.0492504537
0.617012978 0.946604252 0.359759271
0.679634392 0.951856434 0.339915901
0.632179976 0.961459696 0.352171987
0.647673965 0.971408784 0.346890926
