ply
format ascii 1.0
comment Written with hapPLY (https://github.com/nmwsharp/happly)
element vertex 851
property float x
property float y
property float z
end_header
0.25914079 0.0133570712 0.556326628
0.481356412 0.0236054696 0.741446316
0.264338315 0.0188609567 0.574682832
0.352500975 0.00273529813 0.666530192
0.47295785 0.00799193978 0.740738332
0.162270993 0.0107213408 0.488780469
0.302995205 0.00842284691 0.581676543
0.372819722 0.00931673218 0.712639511
0.534686446 0.0309307091 0.692005098
0.146422371 0.0211528279 0.489121675
0.281719923 0.0147498511 0.568061173
0.367100328 0.0514608435 0.646561861
0.530257642 0.00967934914 0.750128448
0.15412876 0.00248932373 0.437163174
0.263423234 0.0370335244 0.571626902
0.371719718 0.0908315331 0.659072399
0.523879945 0.0376231708 0.752697587
0.68168056 0.066214174 0.701227665
0.19148536 0.00438687624 0.491536707
0.292534292 0.012599119 0.605356276
0.410029531 0.0793735459 0.694462657
0.512974679 0.01684401 0.713001966
0.761960208 0.002936929 0.710838974
0.245527536 0.0618359223 0.618529379
0.308630913 0.041817192 0.659727335
0.477414638 0.0449679121 0.744009972
0.589354694 0.0638004765 0.789305627
0.251787901 0.0463208035 0.292182207
0.201842681 0.0607632697 0.588086247
0.355017155 0.0443996228 0.674832761
0.488163918 0.0142348493 0.719669163
0.601683676 0.037100479 0.790160835
0.258542925 0.023140898 0.284097314
0.199838683 0.0407718606 0.547787309
0.287960142 0.0569321215 0.689009786
0.470508367 0.042560827 0.722596586
0.611021042 -0.00789482147 0.740764976
0.26467225 0.0248362776 0.260457277
0.202551484 0.0517857634 0.528547764
0.323387176 0.0267340411 0.684052765
0.475983977 0.0658416301 0.707825601
0.561630666 0.00236675376 0.713790417
0.808614492 -0.00183988037 0.719492733
0.225847661 0.105130911 0.541638315
0.29695186 0.0606872216 0.57907182
0.410911202 0.0310893338 0.716053486
0.545205235 0.0489157028 0.768411458
0.759418726 0.0522509851 0.767896235
0.203632668 0.0548054315 0.517424941
0.229381025 0.0801394358 0.67152971
0.418397605 0.0799500272 0.663690686
0.565311134 0.0249541793 0.774148166
0.741533637 0.0384075679 0.769183159
0.193632171 0.0726681873 0.50137639
0.245071724 0.0456304587 0.586729705
0.431557477 0.0713339597 0.686035573
0.536733687 0.0533653907 0.760847032
0.718774676 0.0616532192 0.657089055
0.179309011 0.0448209643 0.429642856
0.283040971 0.117254004 0.567254424
0.401048481 0.0702296197 0.688596725
0.466921866 0.0529121757 0.699291766
0.625078499 0.0513438135 0.804285228
0.250599563 0.044972714 0.256663144
0.211303011 0.0752034858 0.543546617
0.333726525 0.0763096809 0.649904072
0.386455387 0.0824774504 0.800748169
0.58392781 0.107293978 0.80406189
0.771704078 0.0196733288 0.773405075
0.181728035 0.0553169362 0.46965754
0.340122849 0.111839555 0.560731113
0.438699096 0.0440120175 0.675057054
0.55033803 0.0679543242 0.773883402
0.714573324 0.0548959821 0.783222318
0.267842889 0.0105508156 0.303468794
0.291563779 0.0694695637 0.546998918
0.380346 0.0692382157 0.672528148
0.490290314 0.0373842381 0.749894142
0.61933583 0.0470325574 0.730520248
0.765850186 0.0494620688 0.801070273
0.252503872 0.0751262456 0.509208322
0.319184124 0.0248428714 0.658046186
0.497784704 0.12682578 0.748387277
0.569032431 0.0601054579 0.831118584
0.762565017 0.0768243149 0.804282725
0.301057488 0.0142533546 0.323589116
0.332918555 0.100461632 0.609350264
0.43121022 0.0437644944 0.744280457
0.553778827 0.0622739568 0.817224145
0.710791945 0.0578014143 0.76257199
0.283136487 0.0537007935 0.262206137
0.331426024 0.0864426196 0.489589334
0.370741755 0.0712484196 0.667059004
0.493731946 0.103334337 0.782471657
0.666823328 0.0873092115 0.750718892
0.777204454 0.0166966952 0.806941628
0.259682685 0.0893498138 0.507897913
0.349618524 0.0786673352 0.693597972
0.438252628 0.14981775 0.762274683
0.586555004 0.0829658359 0.778179049
0.765798748 0.0883160159 0.80294615
0.197678611 0.0778356865 0.411820024
0.347045183 0.0885546356 0.578065634
0.436440617 0.140595362 0.719470918
0.563331008 0.095363833 0.789337218
0.737328291 0.0826443285 0.78856957
0.340976685 0.104647718 0.319182158
0.310275704 0.167644829 0.489284992
0.414272666 0.0983814448 0.710877657
0.500326097 0.0493485481 0.715816319
0.726530731 0.0801831484 0.769010484
0.879525065 0.0830054209 0.792841017
0.320909321 0.100743666 0.598900974
0.298144519 0.0317385346 0.697948933
0.503944576 0.0794205889 0.795685351
0.678601027 0.0976145864 0.792997122
0.799742937 0.086050503 0.848058999
0.251260966 0.120993659 0.54788059
0.354046553 0.116812468 0.675719678
0.47097525 0.153413385 0.798413098
0.580397904 0.113478348 0.84659493
0.807116568 0.0959502012 0.845376849
0.2495161 0.0741460696 0.499466121
0.357185215 0.0804156214 0.639356256
0.448331475 0.115775384 0.771149755
0.598828256 0.119259566 0.805791914
0.700407982 0.148324341 0.770632982
0.239856794 0.100920931 0.482380509
0.389026582 0.10362874 0.589832544
0.442622721 0.122873597 0.768575668
0.583457589 0.118235379 0.803482533
0.797039092 0.17938973 0.731849492
0.274304003 0.120562948 0.453507721
0.362171382 0.114939094 0.566305578
0.416459411 0.0685763136 0.797914445
0.543848276 0.117475644 0.787953854
0.738526046 0.127195746 0.769173086
0.329116732 0.0940542668 0.299657345
0.335469663 0.124714918 0.559689701
0.373043209 0.10057538 0.738007009
0.529554605 0.128013417 0.802770913
0.7036134 0.116873406 0.813380063
0.841641665 0.141968027 0.831953764
0.305159807 0.126670837 0.557512701
0.378224015 0.147308961 0.727702498
0.421041697 0.185859874 0.830978692
0.659360766 0.127201766 0.802806199
0.783002973 0.10662327 0.825288713
0.171114877 0.16974245 0.545002937
0.408545703 0.192770272 0.627850592
0.417112082 0.152411729 0.809987366
0.623794496 0.133139759 0.809625328
0.788951337 0.124508761 0.824557722
0.298276603 0.126405463 0.491395473
0.365823686 0.145583645 0.599608719
0.491017193 0.164188311 0.775471091
0.594846904 0.126881033 0.794544697
0.720755696 0.236668035 0.861134112
0.281166762 0.0801815242 0.441148043
0.413560063 0.122553617 0.571990192
0.409289926 0.151846483 0.756962001
0.542458177 0.154341564 0.807602763
0.717989683 0.133873418 0.810121894
0.338088125 0.0971011519 0.410164952
0.28319937 0.150910646 0.605145693
0.34597522 0.176562995 0.736647666
0.4951832 0.170885488 0.71998173
0.681734681 0.136960819 0.805428863
0.865270853 0.129816204 0.843987048
0.272422612 0.158133432 0.542258263
0.367954671 0.124131426 0.601430535
0.464268178 0.159873292 0.79863131
0.631924689 0.116331667 0.795228183
0.814190567 0.157633796 0.820769846
0.311957836 0.175282642 0.433828592
0.335080266 0.139038637 0.557679653
0.409530789 0.197976172 0.726520717
0.454211146 0.209744334 0.796106935
0.724352539 0.141194597 0.825705826
0.897230029 0.145164475 0.811002791
0.264075071 0.145382106 0.54356879
0.368768185 0.102124251 0.688697875
0.4889175 0.0938467309 0.755531728
0.618686855 0.162249938 0.81095922
0.720154822 0.207236096 0.887240648
0.264381468 0.177879751 0.39670977
0.297558665 0.117924966 0.587673426
0.400093198 0.187472418 0.696341097
0.547297776 0.154362112 0.798083186
0.800406575 0.245485872 0.882341743
0.832100987 0.113711737 0.848024666
0.260043234 0.168115243 0.47319749
0.368463367 0.173318803 0.576903462
0.386352867 0.169221625 0.765769541
0.586073339 0.180235058 0.833933592
0.781253755 0.144801259 0.760026038
0.973116159 0.12189927 0.838001251
0.256836891 0.151242465 0.567053676
0.376394302 0.17376624 0.645252228
0.429452181 0.184209958 0.785794914
0.587450743 0.150915697 0.803904116
0.75651294 0.154597148 0.843999505
0.279242128 0.180459768 0.360193729
0.264596552 0.186394393 0.537533283
0.353946954 0.124589831 0.707699656
0.42134279 0.075887911 0.799060702
0.631736934 0.153080299 0.79825604
0.765018523 0.145020097 0.822049558
0.230847225 0.159909546 0.386374593
0.273580432 0.182696819 0.497918278
0.341133296 0.212807819 0.678564012
0.494290709 0.2075077 0.774328053
0.601889968 0.216308147 0.855837703
0.797839761 0.165461481 0.822338462
0.201882541 0.185193449 0.402322233
0.208489239 0.158921406 0.501124561
0.365369499 0.229478478 0.678145468
0.465584755 0.196153298 0.791056812
0.604046285 0.243750647 0.832968414
0.863275409 0.166227669 0.78642112
0.186854467 0.188736632 0.40977338
0.349578947 0.206734449 0.595247567
0.378626347 0.157822505 0.692804277
0.510549307 0.158463955 0.702229381
0.625398219 0.18331334 0.813831568
0.776519001 0.136412874 0.78839469
0.162754685 0.270217031 0.408308059
0.275506765 0.198215112 0.545769691
0.349832177 0.199227259 0.701695263
0.469869614 0.203989834 0.83293736
0.622546732 0.229955912 0.839478135
0.809668362 0.186378285 0.801740468
0.150582179 0.234560281 0.433222979
0.218861684 0.232091174 0.545199275
0.367697984 0.196662799 0.665768862
0.449539036 0.160417482 0.805999935
0.657381177 0.19320941 0.837331355
0.797081828 0.165978834 0.766204476
0.221626461 0.178900063 0.386392057
0.298916608 0.166365802 0.482201129
0.312146187 0.218914896 0.722029746
0.455617338 0.213901699 0.786550701
0.581374168 0.247541055 0.786610782
0.810084939 0.189808533 0.77925837
0.171364874 0.21674338 0.404924989
0.235716432 0.231956244 0.51822412
0.319398344 0.238134488 0.665734649
0.500888348 0.241347581 0.773863852
0.613756895 0.207165226 0.818573415
0.800705671 0.215045959 0.768652141
0.165413395 0.224139541 0.427418619
0.132284954 0.326673836 0.571576536
0.406307757 0.229038611 0.698050082
0.450243801 0.220569029 0.790614009
0.635535896 0.150252447 0.848833561
0.812103689 0.20530346 0.758693635
0.179162368 0.197758004 0.412367642
0.209147349 0.21488817 0.52279067
0.34162271 0.234957844 0.648615181
0.468242496 0.226389557 0.78422606
0.582190335 0.202989489 0.832333803
0.792586803 0.212119281 0.816816866
0.144946337 0.236587748 0.394468993
0.214033738 0.236242905 0.549246013
0.353939563 0.229004577 0.609098375
0.420773298 0.226156533 0.814060092
0.579297483 0.208177075 0.822536886
0.708640099 0.166546479 0.778127611
0.12385761 0.183328688 0.265616
0.211587787 0.23338601 0.546844423
0.338297874 0.230961919 0.577154934
0.363989741 0.234877914 0.763936162
0.462472916 0.205376953 0.827561796
0.700698256 0.255495548 0.781126916
0.893494248 0.211202368 0.799897432
0.207568318 0.182273984 0.504987001
0.299063146 0.237705708 0.568702757
0.342330843 0.232716382 0.717175066
0.509190023 0.25115478 0.804228127
0.697467744 0.279136777 0.834682047
0.85425663 0.220241666 0.788691163
0.166571468 0.242337301 0.449908912
0.269279987 0.235942349 0.548706889
0.431825221 0.266102612 0.694040835
0.445415348 0.243463233 0.782902181
0.577863753 0.311323255 0.831665218
0.824594736 0.247859374 0.807989359
0.0917241126 0.211590096 0.413994223
0.2479579 0.19050242 0.541271627
0.318518728 0.25774312 0.697525263
0.429077476 0.20403403 0.745034635
0.52432549 0.188923046 0.798190117
0.813722491 0.265227735 0.772679567
0.119622491 0.243662924 0.354705751
0.236429259 0.236447304 0.537400544
0.317332 0.309071928 0.59371531
0.364452869 0.268007725 0.76301986
0.55813086 0.256442696 0.850914657
0.719159484 0.242655918 0.775977075
0.130851343 0.251810074 0.380052537
0.242319122 0.228822812 0.514475822
0.343175113 0.25481087 0.588816464
0.403169304 0.261760265 0.761720359
0.495534658 0.195233166 0.741811395
0.698791623 0.226326838 0.876588345
0.137478679 0.252514422 0.39696762
0.194637582 0.285789877 0.524452209
0.343267351 0.243589088 0.626071692
0.413512051 0.230545968 0.776095629
0.514459729 0.288426727 0.781650603
0.742617369 0.258453965 0.799091697
0.140413105 0.280248195 0.402203232
0.268678367 0.303286165 0.516902089
0.282656789 0.294385284 0.729053974
0.463171959 0.26505214 0.779157639
0.554909706 0.295936286 0.865870893
0.80068022 0.253440142 0.78235805
0.170561373 0.247447595 0.475327671
0.310844213 0.257806599 0.573979557
0.347216696 0.211920962 0.683895648
0.455309808 0.317130357 0.782104671
0.621434569 0.234727398 0.819016278
0.145415336 0.279276788 0.343280017
0.189044356 0.273176163 0.454877853
0.301504254 0.258658826 0.531371713
0.310419977 0.250366122 0.78782481
0.443103492 0.313081503 0.802592814
0.717614472 0.351239443 0.803839207
0.13985984 0.252818286 0.371113867
0.215915665 0.28764829 0.524917305
0.345210433 0.242216647 0.590432286
0.422936261 0.279755056 0.712920547
0.561982989 0.258081853 0.815060973
0.713122964 0.295039564 0.826788723
0.0529521033 0.311411589 0.421024144
0.16686286 0.285304397 0.560388148
0.393865228 0.281406015 0.63027662
0.420252413 0.298927516 0.754724264
0.54779917 0.283195317 0.825251162
0.774203002 0.235344201 0.793027639
0.137412637 0.274520427 0.448552966
0.216449067 0.279936433 0.517939448
0.309136719 0.254048735 0.651032865
0.421058744 0.294936687 0.78715682
0.602307618 0.266891897 0.81657207
0.777791858 0.299551308 0.814008653
0.136287391 0.301802546 0.454385102
0.244242445 0.371906608 0.491564006
0.308635503 0.254510134 0.612688661
0.351646602 0.329605728 0.820670962
0.595046937 0.301265657 0.84932375
0.780790031 0.288559586 0.784061432
0.137173563 0.295216501 0.469808519
0.248340189 0.31588611 0.56212455
0.393933415 0.282818139 0.679821849
0.473616004 0.299818367 0.804056227
0.59755075 0.284143448 0.838249087
0.838245511 0.300995767 0.767923951
0.134363964 0.299853086 0.47075811
0.29409194 0.272948861 0.589933336
0.334371924 0.290838748 0.710080326
0.451180577 0.295579314 0.758951187
0.582127392 0.27531451 0.883787453
0.134014115 0.269960076 0.285584629
0.124412112 0.291948974 0.483167142
0.28341648 0.310717404 0.56244415
0.337896228 0.337285459 0.661538243
0.438301921 0.364374578 0.753798723
0.630802035 0.319999278 0.824052155
0.0419850945 0.376595914 0.376927167
0.210388675 0.361227214 0.524593472
0.302324742 0.302902281 0.572394013
0.348390549 0.327887803 0.834929943
0.466436982 0.30982089 0.806756079
0.609034836 0.336985558 0.81768924
0.0988930464 0.298344374 0.34844467
0.178159624 0.311319709 0.509620667
0.269182444 0.336794943 0.573812902
0.349072784 0.349672496 0.728783309
0.525818765 0.258217812 0.8741979
0.662681818 0.309473097 0.824166834
0.098643139 0.298063993 0.429395407
0.181199133 0.183912292 0.539975643
0.299864799 0.303542227 0.519099951
0.354743689 0.316089332 0.723230004
0.540744305 0.334481776 0.799307764
0.687164366 0.292197406 0.839072227
0.095399648 0.305600435 0.486851484
0.199151054 0.340338111 0.516568601
0.290212989 0.309806675 0.585761428
0.435101628 0.331317186 0.802785099
0.570980787 0.328167945 0.903419018
0.719932079 0.377160758 0.741993487
0.109328866 0.329108953 0.416066766
0.145604357 0.336114585 0.563897848
0.334371448 0.353066891 0.610303819
0.401098341 0.329438955 0.755108356
0.549074054 0.324191839 0.807084858
0.741371036 0.33140251 0.837968946
0.118682586 0.332738996 0.418900907
0.234439224 0.360449076 0.506107569
0.335621804 0.333058268 0.617231965
0.409662992 0.345104307 0.756510556
0.578187406 0.351812124 0.782446146
0.753612578 0.339528739 0.819235742
0.0981078073 0.368308157 0.454270631
0.217457086 0.33893311 0.539454341
0.306438118 0.336688042 0.632208407
0.419054896 0.339299858 0.7643103
0.548763216 0.334388465 0.819672823
0.803644121 0.425739229 0.760983348
0.135683909 0.374251813 0.31087786
0.227194577 0.345899045 0.545708954
0.361658424 0.351948708 0.613069832
0.43986845 0.368500501 0.778664529
0.540930271 0.390763462 0.853950262
0.731519401 0.332036078 0.811584711
0.108098246 0.349933892 0.44882834
0.223417968 0.338293999 0.539057672
0.394096851 0.37281996 0.582788646
0.41914615 0.339600831 0.770785511
0.566078186 0.340447962 0.81289649
0.78920114 0.42627722 0.873759747
0.103982769 0.338198334 0.425052613
0.244757101 0.326066971 0.508106828
0.344458759 0.349000812 0.598950028
0.397082537 0.305778146 0.812248647
0.565172911 0.34731105 0.817478061
0.739893675 0.325143129 0.792523026
0.176552609 0.380036592 0.400094956
0.281931788 0.265565842 0.536371112
0.382181168 0.3570081 0.62051487
0.422161281 0.360660642 0.754409015
0.582446635 0.402183533 0.798249602
0.751386166 0.353701651 0.804963112
0.106842428 0.363082975 0.430955678
0.194128603 0.298449159 0.591981649
0.332545549 0.358092517 0.615544021
0.450809091 0.340301067 0.862149715
0.572551787 0.346132934 0.786787808
0.759571731 0.332945943 0.828519166
0.0886998102 0.354216218 0.373494714
0.287549615 0.341876328 0.566611469
0.31293124 0.362962931 0.625754952
0.408563644 0.371585071 0.789353013
0.58855623 0.360216945 0.828403354
0.749229789 0.356804907 0.798248768
0.119230591 0.38934806 0.432283074
0.207034335 0.395117402 0.550073862
0.333795339 0.368760705 0.621164262
0.428007513 0.394827902 0.765281975
0.519104719 0.355513424 0.706293702
0.739067018 0.360524178 0.801120043
0.096233435 0.394247353 0.434030592
0.189417735 0.353938997 0.548803568
0.379984409 0.377060235 0.594503582
0.418941975 0.385640621 0.783383071
0.520267069 0.376890838 0.814120054
0.755768239 0.380960584 0.799728274
0.182694227 0.308679283 0.435139358
0.204667658 0.383124739 0.529305696
0.339374512 0.373539478 0.611600399
0.484034181 0.340048164 0.795966744
0.559229851 0.35609743 0.808789551
0.80224967 0.362787962 0.832242131
0.110890597 0.390268683 0.428680867
0.22651878 0.406778514 0.526392758
0.349046707 0.383263767 0.618453741
0.427360862 0.407257199 0.796592057
0.553092301 0.408930808 0.797658563
0.779414654 0.391205311 0.781512082
0.106673881 0.401722908 0.438508898
0.304505795 0.354298562 0.562348485
0.351345897 0.377669424 0.620145321
0.421381503 0.266930461 0.687211514
0.579458833 0.389588296 0.802776456
0.838289559 0.397259533 0.789298534
0.137037337 0.365604103 0.468231857
0.239053488 0.393824697 0.541115105
0.358147264 0.389053017 0.625074327
0.446155459 0.393288851 0.752263069
0.550575078 0.399721056 0.785097659
0.777742922 0.35623911 0.818138838
0.127395734 0.395178944 0.447789133
0.284396589 0.390881121 0.568303347
0.312742442 0.339846879 0.533617973
0.452856332 0.310721308 0.789686561
0.585099339 0.401471853 0.809241354
0.792690098 0.290213495 0.732962251
0.144990146 0.343981802 0.442712009
0.247543052 0.394089133 0.62316674
0.351237923 0.433371276 0.668576479
0.467505604 0.382259846 0.76257956
0.541224897 0.378627956 0.814790785
0.815513074 0.407416075 0.747605026
0.152585253 0.39925611 0.466424286
0.19006452 0.39567095 0.525160193
0.357726127 0.442399532 0.658354998
0.47856003 0.406030267 0.765880406
0.596919358 0.377807289 0.844811618
0.917835414 0.395988584 0.756826878
0.167356223 0.364317149 0.469281614
0.252794147 0.437670618 0.548605561
0.358150691 0.393178433 0.596799135
0.489129454 0.392356038 0.702375531
0.610871673 0.403763771 0.802806973
0.105798393 0.413510501 0.270185351
0.149807289 0.416092753 0.464093894
0.277832687 0.41744709 0.53691256
0.359221071 0.511524796 0.632811904
0.535432458 0.45673871 0.797911167
0.647506535 0.404919863 0.791052222
0.0930956528 0.41759038 0.28893885
0.148306027 0.420203328 0.393091559
0.311038733 0.37087822 0.576734006
0.376396239 0.388973475 0.623938084
0.501695514 0.45048368 0.736916542
0.64017421 0.413486212 0.800712228
0.111177474 0.417779028 0.307741314
0.181156248 0.419911861 0.503489137
0.298071533 0.425516248 0.560600758
0.393880695 0.47839579 0.588620782
0.517628729 0.410306185 0.746129453
0.711403012 0.434401512 0.847191989
0.194106936 0.44594416 0.495649934
0.31420514 0.474376559 0.573182166
0.426180959 0.419270128 0.6177845
0.564404607 0.430710554 0.768813133
0.70881319 0.452562124 0.763349831
0.248311847 0.389410466 0.46982947
0.334393442 0.470666051 0.606056154
0.475281388 0.488604158 0.660835683
0.50559485 0.416838139 0.792149067
0.700714529 0.419677287 0.787367642
0.211668372 0.452341765 0.515331566
0.24620986 0.421074331 0.547964633
0.442366153 0.462931663 0.703287303
0.585661054 0.375373453 0.814840496
0.743942142 0.426266521 0.783394217
0.323381811 0.460498333 0.544472516
0.388775229 0.486675113 0.578404427
0.464336753 0.410021812 0.688160121
0.587290764 0.432153136 0.763911188
0.0929190367 0.443564415 0.237987772
0.173237965 0.441013634 0.451246917
0.297271997 0.466438502 0.563252807
0.390203059 0.453923881 0.64527297
0.507401705 0.454425216 0.727054477
0.628448904 0.36605671 0.687963068
0.186147749 0.463182449 0.479559124
0.351671904 0.348337144 0.517311811
0.425394207 0.460652918 0.663713694
0.546242893 0.431461006 0.730900109
0.713983834 0.436831355 0.785873592
0.199330762 0.440132439 0.491299003
0.360854119 0.45980835 0.645110607
0.457395464 0.439708322 0.714949548
0.587102115 0.455000192 0.766868651
0.778935373 0.402580112 0.711530864
0.261716336 0.475304067 0.536779881
0.378063977 0.470084697 0.652340174
0.509145439 0.421900302 0.727469027
0.638440073 0.46380657 0.765588164
0.249011919 0.417167604 0.480461359
0.314198464 0.461401284 0.573692918
0.42655915 0.464204341 0.666502655
0.574964881 0.51511395 0.728391111
0.717662692 0.488971502 0.77709955
0.252803892 0.468529224 0.522400439
0.391856045 0.506431699 0.553830802
0.477341831 0.468017101 0.69890517
0.601727426 0.447913319 0.73469466
0.138522044 0.490135133 0.273451924
0.185339972 0.471316576 0.451175958
0.320859611 0.522550523 0.590886712
0.396618903 0.472124428 0.624778092
0.502853096 0.425532341 0.659503579
0.661210716 0.485707015 0.777046144
0.221283779 0.475940496 0.475755602
0.340156883 0.491582662 0.573218048
0.464083552 0.473332554 0.607006133
0.585105896 0.46917513 0.754874766
0.760523856 0.467923373 0.757559299
0.285868943 0.48157686 0.523356557
0.397826672 0.454560578 0.624450505
0.499168217 0.472894907 0.709932923
0.664622843 0.533674061 0.762998998
0.23554191 0.442873955 0.48787269
0.305619717 0.483748585 0.568957806
0.426395148 0.498347342 0.673047781
0.531460643 0.48608014 0.674746335
0.70403713 0.474306196 0.749926507
0.262288153 0.499359757 0.490681201
0.393098295 0.489079207 0.59273243
0.448940158 0.498342097 0.707894862
0.592840433 0.543294489 0.692761302
0.2901887 0.528106689 0.542400837
0.420888126 0.485661179 0.610891163
0.54831785 0.467679411 0.711252928
0.602589965 0.549264014 0.790985286
0.181585833 0.491606057 0.545340478
0.356242031 0.496875912 0.549144685
0.447048187 0.495209098 0.668719947
0.565692902 0.492162436 0.717324436
0.79541868 0.448311806 0.748009801
0.356563568 0.488212854 0.501394153
0.431157887 0.520999432 0.632704496
0.539323509 0.455760181 0.703226388
0.637932718 0.498970389 0.751093328
0.345780969 0.507489681 0.468108296
0.479236513 0.576453149 0.666148841
0.517263472 0.45227623 0.704577744
0.717113793 0.502690911 0.79989332
0.280584782 0.400499493 0.462738514
0.386593401 0.492847443 0.558609962
0.432195872 0.479739964 0.693119586
0.616998315 0.499890089 0.783402026
0.345752567 0.507568896 0.42790401
0.450988472 0.532134056 0.555852234
0.508469284 0.515948057 0.692187846
0.656011939 0.467881441 0.707690537
0.320167035 0.497065693 0.484480619
0.442902625 0.52193445 0.633899331
0.517558575 0.610996246 0.724171937
0.693553448 0.50622201 0.753467441
0.247402623 0.517738402 0.504108131
0.376639187 0.474600703 0.519452095
0.52182138 0.552758276 0.687547445
0.621120393 0.527294993 0.739340425
0.34792304 0.573729336 0.467911422
0.450435162 0.541739821 0.585376561
0.535669386 0.532317579 0.699308693
0.667247534 0.546565413 0.736191094
0.281172395 0.493209004 0.504729927
0.327561975 0.59658879 0.479109079
0.494024068 0.49636057 0.638262272
0.61707598 0.548198938 0.724197745
0.294590145 0.525512755 0.471326053
0.428122818 0.537377417 0.576726913
0.565584779 0.563986897 0.701196849
0.667259932 0.534271538 0.724758208
0.22502178 0.546405733 0.487787783
0.390466392 0.539742708 0.497772515
0.466437608 0.555057645 0.647025466
0.714768529 0.526566684 0.706361771
0.313183069 0.530879378 0.456918657
0.434203446 0.522197545 0.554550648
0.578898668 0.535852492 0.688291013
0.699288011 0.558129966 0.717925429
0.188193381 0.525191963 0.46726647
0.429945081 0.561760008 0.531044245
0.502563179 0.560949981 0.614730418
0.598266661 0.56667608 0.77064532
0.333530754 0.557781816 0.453725487
0.447675675 0.558301151 0.583067179
0.530065119 0.70055443 0.628546119
0.721388221 0.554964185 0.702078164
0.272693515 0.53613925 0.484199911
0.433074594 0.548449993 0.50651139
0.515039623 0.562737226 0.635930896
0.636327326 0.558732808 0.704185128
0.19338493 0.569597065 0.501775622
0.324607372 0.577796519 0.474122703
0.480373472 0.575872123 0.616908491
0.579235792 0.571886539 0.690196395
0.323535174 0.584960699 0.446731418
0.489389956 0.569895506 0.550082505
0.537643909 0.555850327 0.668496847
0.258430272 0.619453847 0.568973482
0.439234555 0.587227464 0.505629003
0.532135665 0.605536103 0.65993911
0.703779578 0.576889336 0.690265536
0.234558702 0.573915184 0.502797067
0.387319744 0.609808207 0.492345393
0.526719987 0.561229587 0.584383786
0.66676873 0.600233495 0.669926167
0.181187004 0.569907725 0.435700804
0.39461568 0.593305111 0.455355525
0.531164825 0.582859814 0.635987163
0.669260561 0.594559908 0.660836697
0.23578316 0.620999396 0.516504228
0.507924616 0.609628618 0.545814753
0.604241192 0.591649652 0.659343839
0.556077957 0.5891487 0.48734358
0.614486039 0.577759981 0.640090406
0.393624574 0.59056133 0.432449758
0.557248235 0.597004533 0.717396379
0.161227778 0.654049873 0.486820638
0.515666902 0.62288177 0.601590216
0.350127667 0.574845493 0.356341362
0.605800152 0.647008717 0.610360563
0.240489453 0.653683484 0.470992446
0.220536113 0.618495226 0.449427307
0.197893023 0.631077051 0.482266545
0.137360126 0.58887428 0.580600202
0.223830864 0.634705544 0.448602796
0.21017383 0.653718829 0.454517066
0.268030405 0.635340631 0.416372061
0.261628449 0.691361129 0.436615139
0.230960146 0.642477334 0.463141739
0.303725928 0.679525316 0.413745761
0.327862322 0.628022373 0.377743661
0.185676068 0.687704563 0.454573721
0.195003167 0.709961295 0.494509727
0.241991922 0.696971953 0.48285225
0.216442376 0.704807818 0.427794278
0.236754388 0.718730986 0.428938538
0.168898806 0.683676004 0.422669232
0.178053111 0.765512168 0.471780568
0.164642662 0.732612491 0.445261657
0.407307535 0.708200037 0.358142316
0.324286878 0.759548008 0.359419912
0.316154599 0.737947524 0.379169405
0.23191677 0.741274357 0.42411682
0.457299381 0.736514211 0.363557756
0.131918937 0.745822191 0.398741007
0.404547572 0.804373145 0.366163641
0.0692301467 0.784531534 0.272696197
0.252842963 0.752280116 0.454098046
0.0765948296 0.780636311 0.316723496
0.184165344 0.757141709 0.519658744
0.451192051 0.705655634 0.314655125
0.151935801 0.759353995 0.415403932
0.326099604 0.756089568 0.408215255
0.208701953 0.682520807 0.357819349
0.272634029 0.754739583 0.419053406
0.431949317 0.858057261 0.326670885
0.220636696 0.786852419 0.432728231
0.472916603 0.716011882 0.376110077
0.227699593 0.754203975 0.41206488
0.451876789 0.745838344 0.375472754
0.207022682 0.791392982 0.390971124
0.464069158 0.802240789 0.398648679
0.337626576 0.822878182 0.348625302
0.498094499 0.799944222 0.36219883
0.33773306 0.782345951 0.192329898
0.432558417 0.776053429 0.374309301
0.35161835 0.721927941 0.239726782
0.418540597 0.80538547 0.347423017
0.552681088 0.799982965 0.393032879
0.367276728 0.793637455 0.359620422
0.537481785 0.773054779 0.400833994
0.344577461 0.773480892 0.310019404
0.468208522 0.801467001 0.400757462
0.257935762 0.817148983 0.189588994
0.423605174 0.77817589 0.340096772
0.585502446 0.801581323 0.385706216
0.424539566 0.770269096 0.308378428
0.497047067 0.799515009 0.376128107
0.30366087 0.796717346 0.191346958
0.459764302 0.811292112 0.35149771
0.668128967 0.831770003 0.420090497
0.397114456 0.821420491 0.403244287
0.461933821 0.794236779 0.412276208
0.338281959 0.823836803 0.168225721
0.479177058 0.830668151 0.365008652
0.619009197 0.841983914 0.369212657
0.378698617 0.797350347 0.318366528
0.568106472 0.844137132 0.370877206
0.298174351 0.909782588 0.0668553188
0.504998386 0.821599722 0.356303006
0.309262156 0.854891002 0.110299796
0.419907421 0.840634167 0.358542621
0.594995916 0.83358866 0.367705762
0.392387956 0.799900591 0.344045252
0.639907002 0.796204269 0.389815331
0.330382437 0.837111413 0.0633044615
0.46236378 0.844033718 0.356530249
0.602172732 0.793560743 0.351538807
0.376326591 0.841349363 0.350010604
0.508064747 0.821237445 0.420369208
0.366301656 0.875059426 0.104669236
0.480085999 0.92716676 0.372683436
0.644286692 0.844269574 0.40967688
0.490843594 0.834760129 0.442694247
0.608684838 0.83931911 0.345105231
0.435086608 0.866058886 0.344985634
0.63780129 0.80965519 0.280583143
0.479470909 0.85182184 0.325619817
0.596871138 0.864849389 0.354002416
0.354998022 0.879033029 0.090454936
0.590689659 0.867326498 0.343292266
0.498066485 0.858630002 -0.0149232587
0.5861094 0.877809107 0.310098112
0.426909834 0.905397892 0.0401576795
0.547009706 0.921155095 0.3567698
0.388808399 0.887802362 0.109258175
0.549771249 0.910806715 0.326145709
0.398120284 0.849528909 0.0486928374
0.509455085 0.894080102 0.351715744
0.40318203 0.907057345 -0.0346917734
0.537937164 0.854902923 0.338115543
0.707387805 0.88301897 0.315544248
0.588013053 0.909935653 0.348578602
0.719972968 0.888292968 0.326312602
0.589746594 0.910512745 0.394460559
0.399829596 0.940890849 -0.0330532566
0.515523076 0.899268091 0.354184598
0.433239102 0.922937393 -0.0502840243
0.568513274 0.92112875 0.338706493
0.410738677 0.856352329 -0.0469807722
0.60577631 0.935230494 0.324043125
0.515329242 0.928043902 -0.0434451848
0.702698827 0.93209517 0.293711066
0.602562964 0.912707686 0.299219936
0.527960181 0.90981102 0.417599916
0.469429106 0.960034072 0.00194418512
0.561920762 0.943753302 0.355176866
0.642281353 0.986401439 0.315345109
0.553052425 0.906017601 0.343003631
0.594579339 0.977462471 0.339837998
1.05857992 0.836307585 2.28955317
0.457848996 1.55785716 1.71630347
1.46803534 1.24442768 1.46825659
0.972563326 1.56017923 1.31844592
0.818478942 1.09131455 1.23613465
1.2499572 1.67965031 1.50653493
1.17998791 1.71850383 1.36136472
1.1980437 0.701273143 1.25115764
0.728142321 1.79006493 1.90899992
0.533762813 0.666501224 1.13772404
1.52470231 0.63307023 1.31868422
1.05614138 1.20881283 1.84724629
0.769132435 0.502838016 1.02816904
1.71621752 1.76861954 1.10651386
1.14723766 0.988301039 0.694911897
1.30574858 0.994738996 1.53608906
0.826704383 1.05062985 0.662643552
1.36786318 0.526403368 1.89744675
0.481245428 0.926953077 2.27977681
0.935184598 0.399777412 1.13824391
1.29727674 1.35108829 1.92258048
1.09295785 0.573599517 0.633444071
0.977429032 1.25499809 1.23877704
0.629497051 0.920354903 1.39124918
1.06621742 0.980261743 0.737825096
2.28316188 0.622030556 0.971176088
1.7182653 1.40224934 1.25120473
0.472959191 1.03205466 2.41089058
1.14794183 0.784642398 1.98254478
0.813772202 1.10965872 1.61278975
0.647437751 0.558794975 1.09082067
1.08806622 1.05800736 1.98618245
1.45990503 1.03070092 0.832717121
0.904612124 1.1605134 1.68754506
0.918578684 0.493695587 1.52792573
0.894373715 0.850705087 1.13161576
0.946698308 0.442501634 1.80514407
0.970916331 1.6013422 1.8128866
0.936357856 0.9253878 1.24335635
1.24319983 0.984982252 1.57021821
